# .PCD v0.7 - Point Cloud Data file format
VERSION 0.7
FIELDS x y z rgba
SIZE 4 4 4 4
TYPE F F F U
COUNT 1 1 1 1
WIDTH 1306
HEIGHT 1
VIEWPOINT 0 0 0 1 0 0 0
POINTS 1306
DATA ascii
-0.240736 -0.111856 5.11876 9871017
-0.238358 -0.110789 5.10951 9212831
-0.226886 -0.114101 5.12338 9871790
-0.190326 -0.113729 5.13501 12306382
-0.261004 -0.112048 5.14766 9346730
-0.254501 -0.111255 5.12873 11253697
-0.250155 -0.111399 5.11945 5793650
-0.244533 -0.111096 5.11305 14542574
-0.240736 -0.111856 5.11876 9871017
-0.225809 -0.112242 5.11677 10661563
-0.220909 -0.111807 5.11089 13621470
-0.219589 -0.111801 5.10872 14014684
-0.20647 -0.112263 5.11368 11452365
-0.204355 -0.112869 5.11737 10069940
-0.196562 -0.113735 5.1269 4739159
-0.252506 -0.111485 5.13793 6450291
-0.238358 -0.110789 5.10951 9212831
-0.22841 -0.111081 5.10791 10398391
-0.216913 -0.111658 5.10835 14082277
-0.207729 -0.111635 5.12191 9740976
-0.20647 -0.112263 5.11368 11452365
-0.203058 -0.111827 5.11171 5266020
-0.189742 -0.11202 5.13695 9278878
-0.183755 -0.112823 5.1479 10397618
-0.256086 -0.109607 5.11996 5527393
-0.24811 -0.109673 5.11758 10792371
-0.237001 -0.110559 5.116 8819620
-0.229256 -0.111 5.11629 11187133
-0.221633 -0.11081 5.10958 14936816
-0.220378 -0.110567 5.10474 11055547
-0.198879 -0.11174 5.11549 10924470
-0.24811 -0.109673 5.11758 10792371
-0.244738 -0.109795 5.11899 14279142
-0.233272 -0.109885 5.11206 10595769
-0.22594 -0.108601 5.11475 9148581
-0.224432 -0.110024 5.11561 11779008
-0.213123 -0.110834 5.10996 9082788
-0.207729 -0.111635 5.12191 9740976
-0.189742 -0.11202 5.13695 9278878
-0.187465 -0.112366 5.13777 11647943
-0.259381 -0.108555 5.13157 7568777
-0.250504 -0.109186 5.12245 11846607
-0.239298 -0.10829 5.11838 5857898
-0.231653 -0.109757 5.1119 14607853
-0.221772 -0.109775 5.10855 11712704
-0.219373 -0.109681 5.10687 10067877
-0.214161 -0.109554 5.1196 9939127
-0.197041 -0.111198 5.12175 13358809
-0.261546 -0.109636 5.15173 10859455
-0.259771 -0.110095 5.16203 8621464
-0.245654 -0.107559 5.12131 10068652
-0.242638 -0.108693 5.1195 11780036
-0.2233 -0.108061 5.10551 9739944
-0.20868 -0.10911 5.1177 9741230
-0.207472 -0.109852 5.10828 12372952
-0.199785 -0.110556 5.12355 9806765
-0.193914 -0.110748 5.13126 11253952
-0.173834 -0.116272 5.16824 7438220
-0.253959 -0.108141 5.13543 7371657
-0.252367 -0.108547 5.1378 7306376
-0.252358 -0.108102 5.11856 7042944
-0.214161 -0.109554 5.1196 9939127
-0.193914 -0.110748 5.13126 11253952
-0.186899 -0.110679 5.13104 11056060
-0.26111 -0.107929 5.15607 6385276
-0.259182 -0.107251 5.14379 6779779
-0.255132 -0.10736 5.14535 7437193
-0.245654 -0.107559 5.12131 10068652
-0.239298 -0.10829 5.11839 5857898
-0.226735 -0.106875 5.11148 14410983
-0.22053 -0.10806 5.11307 10265517
-0.213858 -0.108697 5.1142 8293788
-0.211582 -0.108116 5.10714 10727353
-0.211976 -0.108027 5.10467 10332852
-0.207534 -0.108803 5.11252 4343897
-0.199689 -0.108209 5.10978 7239298
-0.18691 -0.109884 5.13541 8357520
-0.234466 -0.107006 5.10666 15463929
-0.229791 -0.10734 5.10782 11648455
-0.222885 -0.106643 5.11229 8160657
-0.218548 -0.107531 5.10345 11911884
-0.203845 -0.108682 5.12347 7504017
-0.188545 -0.110416 5.14304 8095892
-0.184161 -0.109343 5.13789 10332852
-0.285596 -0.11017 5.33544 11779780
-0.258844 -0.106522 5.1445 3555410
-0.252472 -0.106373 5.12971 8952745
-0.213262 -0.107267 5.10171 6647675
-0.199689 -0.108209 5.10978 7239298
-0.126362 -0.113828 5.27511 7832191
-0.25496 -0.105881 5.12154 7305094
-0.249772 -0.104729 5.12256 8162202
-0.247706 -0.105987 5.11464 5727600
-0.24474 -0.105741 5.11543 10267832
-0.2233 -0.108061 5.10551 9739944
-0.224696 -0.105551 5.05668 9082789
-0.200335 -0.107603 5.11549 11780290
-0.185479 -0.107396 5.13334 7371654
-0.111477 -0.102809 5.28001 8820634
-0.257755 -0.105141 5.13379 7044233
-0.253455 -0.104912 5.11803 8622495
-0.222885 -0.106643 5.11229 8160657
-0.205872 -0.106442 5.10762 3950167
-0.202112 -0.107211 5.11684 7897997
-0.200335 -0.107603 5.11549 11780290
-0.194474 -0.106633 5.12848 8951202
-0.191872 -0.107206 5.12426 11977934
-0.172789 -0.108304 5.15616 7043465
-0.286213 -0.105315 5.28691 10523539
-0.251433 -0.104749 5.1226 5333362
-0.247029 -0.104796 5.11575 4213595
-0.24474 -0.105741 5.11543 10267832
-0.231982 -0.105495 5.11575 14279655
-0.229807 -0.10544 5.10888 14805743
-0.225865 -0.104806 5.10684 4081495
-0.219418 -0.105147 5.10529 11055808
-0.216229 -0.105737 5.10971 4344925
-0.189889 -0.106772 5.12601 11781067
-0.184221 -0.106755 5.13677 7832977
-0.28012 -0.105976 5.24417 7634318
-0.256287 -0.104229 5.12876 6450558
-0.256287 -0.104229 5.12876 6450558
-0.241682 -0.104245 5.11305 4278871
-0.222889 -0.104723 5.10421 8819615
-0.216031 -0.105051 5.10324 8293534
-0.213478 -0.105057 5.1048 7503244
-0.209465 -0.105515 5.10799 5266028
-0.20839 -0.105782 5.10613 8753313
-0.200803 -0.10569 5.11922 8621714
-0.116561 -0.110778 5.28885 4740186
-0.287076 -0.103418 5.28606 9667970
-0.250954 -0.103536 5.1244 2701132
-0.201116 -0.104639 5.11209 10663100
-0.1941 -0.105395 5.12178 10003376
-0.179729 -0.105443 5.15827 9280420
-0.258187 -0.102819 5.13276 3028292
-0.207659 -0.104067 5.10123 5069163
-0.264276 -0.101745 5.1535 7831437
-0.242469 -0.102462 5.11796 3357766
-0.221874 -0.103099 5.10973 4348269
-0.176252 -0.105147 5.14563 6845826
-0.129847 -0.106622 5.23433 3948351
-0.28272 -0.102354 5.26061 11254472
-0.254695 -0.101586 5.12833 4346728
-0.246695 -0.102065 5.11725 5266541
-0.240397 -0.100638 5.1112 12700883
-0.229454 -0.10253 5.10391 12172995
-0.225359 -0.102578 5.10927 10333882
-0.192675 -0.103705 5.13634 11321288
-0.101667 -0.10779 5.30664 9344146
-0.258248 -0.101088 5.13232 11319746
-0.224137 -0.102022 5.10948 3094343
-0.204011 -0.102527 5.10105 4015697
-0.194733 -0.102815 5.11503 2304823
-0.168696 -0.104048 5.1684 9478059
-0.171255 -0.104163 5.1499 5530480
-0.129847 -0.106622 5.23433 3948351
-0.237009 -0.101218 5.09379 15594486
-0.221261 -0.102079 5.10817 3227729
-0.204011 -0.102527 5.10105 4015697
-0.189657 -0.10273 5.12999 9739939
-0.113565 -0.103805 5.28456 11584717
-0.120344 -0.105128 5.24972 8289657
-0.260318 -0.0997408 5.15055 11583686
-0.252433 -0.100313 5.1328 3026997
-0.245101 -0.100609 5.11707 3557209
-0.240397 -0.100638 5.1112 12700883
-0.226003 -0.100178 5.1025 7371656
-0.219394 -0.100538 5.10834 3821671
-0.212016 -0.101426 5.12342 3229794
-0.213829 -0.101271 5.09846 1778481
-0.192588 -0.100248 5.12432 5264222
-0.186397 -0.101823 5.12704 11583175
-0.113565 -0.103805 5.28456 11584717
-0.285888 -0.0975022 5.28318 5196370
-0.269158 -0.0991132 5.15945 3620426
-0.258686 -0.0987608 5.13931 2964563
-0.241428 -0.0995648 5.12407 12108748
-0.241428 -0.0995648 5.12407 12108748
-0.226003 -0.100178 5.1025 7371656
-0.194539 -0.100364 5.1208 3686479
-0.178308 -0.0993848 5.14152 6581105
-0.251422 -0.0983402 5.11524 4935510
-0.226891 -0.0976907 5.11339 11383224
-0.214327 -0.0994453 5.10162 3952999
-0.210213 -0.0996455 5.11149 3821927
-0.114194 -0.101869 5.27309 10269367
-0.269014 -0.0966513 5.16745 10661301
-0.26221 -0.0975069 5.14068 9214115
-0.244105 -0.0983894 5.11809 4803408
-0.242156 -0.0973865 5.11358 11056831
-0.240397 -0.100638 5.1112 12700883
-0.221881 -0.0987224 5.11256 2501944
-0.220285 -0.0988066 5.11063 3295582
-0.208375 -0.0995066 5.10884 1583937
-0.192104 -0.0996367 5.11825 9742000
-0.188867 -0.100312 5.12401 4343381
-0.178292 -0.0993851 5.14158 6581105
-0.106169 -0.100411 5.28716 9017499
-0.24617 -0.0969474 5.13531 5132630
-0.0133557 -0.0839341 7.30908 12503758
-0.226891 -0.0976907 5.11339 11383224
-0.21608 -0.0982071 5.10544 3886176
-0.180536 -0.0980434 5.14664 7107196
-0.178308 -0.0993848 5.14152 6581105
-0.251792 -0.0969399 5.1311 4474957
-0.229216 -0.0981857 5.10795 13883871
-0.227196 -0.0975881 5.09627 7897223
-0.21211 -0.098016 5.1135 1582907
-0.266486 -0.0956489 5.15303 4737622
-0.24617 -0.0969474 5.13531 5132630
-0.244202 -0.0955549 5.11796 9280414
-0.223944 -0.0976738 5.10828 6120557
-0.177687 -0.0980092 5.14148 11846602
-0.10015 -0.0979183 5.2977 5196616
-0.25446 -0.0954395 5.14394 3421246
-0.242985 -0.0951802 5.11639 11318974
-0.224137 -0.0968926 5.11094 8225163
-0.214773 -0.0961965 5.12203 3489611
-0.186343 -0.0975952 5.12185 7962762
-0.116363 -0.0981687 5.29986 6516848
-0.264076 -0.0950603 5.14861 11386314
-0.25446 -0.0954396 5.14394 3421246
-0.244792 -0.094546 5.11576 8160904
-0.206015 -0.0953277 5.12522 4476503
-0.112179 -0.0964688 5.27077 4607312
-0.270067 -0.0936748 5.16346 7107712
-0.242822 -0.0940305 5.09585 9939123
-0.232782 -0.0942073 5.09362 11188162
-0.22766 -0.0956328 5.10343 10923959
-0.114575 -0.0956081 5.27191 8953509
-0.238772 -0.0955423 5.10046 14016488
-0.174573 -0.0932977 5.15805 8423054
-0.263053 -0.0928825 5.12584 3095370
-0.256391 -0.0931365 5.14018 3814710
-0.245381 -0.0936791 5.11038 10990518
-0.240425 -0.0935198 5.09405 10727611
-0.229464 -0.0957837 5.09263 10133671
-0.223836 -0.0946948 5.10411 9279905
-0.206984 -0.0947751 5.10877 3751491
-0.183993 -0.0953017 5.13806 7174534
-0.156407 -0.0952252 5.19017 6055532
-0.142221 -0.0939913 5.21353 4013883
-0.112586 -0.0934457 5.26956 9414835
-0.110699 -0.0930756 5.26755 9545387
-0.232782 -0.0942073 5.09362 11188162
-0.231468 -0.0934244 5.08612 7174534
-0.215774 -0.0941921 5.11281 5133663
-0.216137 -0.0940768 5.10046 5132889
-0.209058 -0.0941957 5.11143 2237225
-0.199931 -0.0942446 5.11276 3821672
-0.117435 -0.0913361 5.26019 3619645
-0.253782 -0.0918027 5.13464 12108742
-0.24107 -0.0917366 5.12857 10464697
-0.240425 -0.0935198 5.09405 10727611
-0.227296 -0.0929601 5.09868 6581108
-0.216137 -0.0940768 5.10046 5132889
-0.206984 -0.0947751 5.10877 3751491
-0.205056 -0.0935456 5.10742 4804696
0.00926709 -0.0612998 7.04488 11055807
-0.125099 -0.0919749 5.25848 5332063
-0.275891 -0.0905607 5.19276 9741233
-0.250696 -0.0911746 5.11792 4738903
-0.246567 -0.0921946 5.11618 8226185
-0.24253 -0.092635 5.08237 10793146
-0.236323 -0.0931423 5.08936 14476780
-0.201042 -0.0931115 5.1145 2436410
-0.185592 -0.0930972 5.12477 7502984
-0.0995733 -0.0899782 5.29532 3881785
-0.244419 -0.0911562 5.10337 8819617
-0.0392168 -0.0292872 7.29458 11319489
0.529775 0.00768214 8.63279 9212569
-0.234834 -0.0928901 5.08208 11714252
-0.223479 -0.0919082 5.10388 10661562
-0.0982833 -0.0890501 5.30507 2960944
-0.230283 -0.092007 5.09343 7766161
-0.227824 -0.0916139 5.10207 6515317
-0.21255 -0.0921987 5.10785 6053737
-0.182468 -0.0917931 5.13328 6252657
0.574101 0.0136849 8.84529 9212569
-0.149275 -0.0909273 5.20083 3487284
-0.119504 -0.0897941 5.27098 7439754
-0.275957 -0.0881798 5.17217 9345448
-0.258819 -0.0894449 5.13437 11384252
-0.252066 -0.0892043 5.12107 10531518
-0.2486 -0.0911252 5.1035 12965337
-0.2486 -0.0911252 5.1035 12965337
-0.241983 -0.0904748 5.1095 12240593
-0.222446 -0.0912815 5.10593 10793401
-0.200441 -0.0917532 5.11886 3027253
-0.124089 -0.0888345 5.25159 5199968
-0.111733 -0.0861908 5.27305 8888748
-0.257935 -0.0892726 5.11272 8028555
-0.19885 -0.0911642 5.11695 3490642
-0.199294 -0.0913878 5.09756 6450558
-0.192089 -0.0904376 5.11904 11452104
-0.114003 -0.0876162 5.25141 6317930
-0.266145 -0.087651 5.15167 13294051
-0.260762 -0.0880416 5.14156 5458762
-0.240163 -0.0896993 5.08128 14804974
-0.239141 -0.0904195 5.07959 11190479
-0.202283 -0.0906608 5.11417 5461596
-0.192089 -0.0904376 5.11904 11452104
-0.188494 -0.0903322 5.12016 12373203
-0.0360388 -0.0282855 7.32959 11319489
-0.170942 -0.0895635 5.15911 7634310
-0.130334 -0.0867935 5.23816 6979468
-0.111733 -0.0861908 5.27305 8888748
-0.095348 -0.0854075 5.29895 5323310
-0.246834 -0.089116 5.11142 10530749
-0.135922 -0.0861628 5.23427 5858920
-0.120581 -0.0859603 5.25406 4014147
-0.270883 -0.0865487 5.1424 11320007
-0.259237 -0.0863873 5.14593 14936560
-0.254666 -0.0882175 5.12747 6976382
-0.251858 -0.0884043 5.11271 14017261
-0.238315 -0.0899719 5.07873 11451079
-0.230474 -0.0891702 5.09233 5659493
-0.222446 -0.0912816 5.10593 10793401
-0.211069 -0.088029 5.11222 5660010
-0.270883 -0.0865483 5.14241 11320007
-0.263523 -0.0862237 5.14345 14213351
-0.230474 -0.0891702 5.09233 5659493
-0.224067 -0.0890829 5.10092 10990780
-0.115677 -0.0824658 5.28087 6057844
-0.24666 -0.0878528 5.1025 9609134
-0.24357 -0.0884174 5.08787 12437714
-0.23652 -0.08853 5.08848 12503250
-0.191623 -0.0868523 5.11396 4538692
-0.106519 -0.0802453 5.29801 5134427
-0.113527 -0.0831728 5.25573 9149856
-0.268422 -0.0849199 5.14526 10201270
-0.229989 -0.0880304 5.0923 6844025
-0.184731 -0.0873404 5.12357 8820896
-0.262984 -0.0851138 5.12447 11846092
-0.250313 -0.0860555 5.12237 9741495
-0.246829 -0.0864753 5.10031 10135734
-0.186458 -0.0871296 5.12387 4868429
-0.106519 -0.0802453 5.29801 5134427
-0.107981 -0.0818391 5.26102 8815744
-0.181458 -0.0860346 5.13032 4935503
-0.236921 -0.0864281 5.08227 14476780
-0.220682 -0.0875517 5.10092 11714245
-0.197474 -0.0856276 5.11559 4208442
-0.267705 -0.0827972 5.13953 11516872
-0.267705 -0.0827972 5.13953 11516872
-0.250725 -0.0854371 5.10403 13293025
-0.24651 -0.0858787 5.08792 10136766
-0.244113 -0.0863873 5.0827 11714763
-0.233187 -0.0869548 5.07803 8818584
-0.223932 -0.0855692 5.09727 7437707
-0.195088 -0.0848655 5.11363 11385800
-0.189239 -0.0842579 5.13373 9214113
-0.189947 -0.0851113 5.12063 5526619
-0.189947 -0.0851113 5.12063 5526619
-0.256521 -0.0836336 5.12174 11780557
-0.246773 -0.0858345 5.08705 10136765
-0.237954 -0.0857239 5.07432 12371408
-0.236921 -0.0864281 5.08227 14476780
-0.235775 -0.085624 5.07508 13621473
-0.227283 -0.0859735 5.08689 9346214
-0.195537 -0.084963 5.11416 11450820
-0.18919 -0.0846645 5.1149 8621724
-0.185516 -0.0846738 5.12293 11318970
-0.12293 -0.0782847 5.25334 3288621
-0.290468 -0.0689309 5.27063 9740973
-0.280464 -0.0777531 5.2167 6845055
-0.250432 -0.0836956 5.11386 11517385
-0.24703 -0.0851131 5.10279 10991815
-0.222344 -0.084611 5.09876 7569811
-0.240903 -0.0856084 5.07425 15660022
-0.232158 -0.0852791 5.07798 7634574
-0.197854 -0.0834964 5.11724 6382441
-0.183279 -0.0833779 5.12675 10530486
-0.14502 -0.0782557 5.21562 8952472
-0.132897 -0.0762906 5.22596 9480623
-0.121521 -0.0759122 5.25697 3553853
-0.277315 -0.0759693 5.19745 12240334
-0.27014 -0.0784133 5.16732 12569043
-0.250794 -0.0826301 5.10656 14345710
-0.244378 -0.084775 5.07846 14476523
-0.208242 -0.0823129 5.12002 10002596
-0.200969 -0.0826426 5.11742 9278360
-0.168657 -0.080664 5.15583 4014921
-0.139146 -0.0777758 5.21541 4210750
-0.28125 -0.0769792 5.19448 6976387
-0.269048 -0.0784348 5.14116 10859198
-0.265238 -0.0789041 5.15283 11845832
-0.235907 -0.0847814 5.07323 13423580
-0.231814 -0.0840917 5.08481 8752794
-0.213315 -0.0824012 5.11305 12305355
-0.208242 -0.0823129 5.12002 10002596
-0.200969 -0.0826426 5.11742 9278360
-0.187238 -0.0822545 5.11832 12701913
-0.119508 -0.0751151 5.24569 4409418
-0.116517 -0.0751224 5.24417 9216680
-0.239746 -0.0844507 5.07087 11582400
-0.227309 -0.0835201 5.08562 10925758
-0.224771 -0.0827692 5.10098 11319746
-0.221947 -0.0828384 5.09807 11386826
-0.12565 -0.0747993 5.23846 7904180
-0.269048 -0.0784348 5.14116 10859198
-0.257241 -0.0799151 5.12069 13950436
-0.252758 -0.081008 5.10891 10398907
-0.249313 -0.0816346 5.10301 11648715
-0.244897 -0.0833702 5.09041 12569303
-0.242056 -0.0816638 5.089 11450564
-0.231562 -0.0829911 5.07843 8490913
-0.229785 -0.0833899 5.08068 8029846
-0.212384 -0.0837132 5.07392 12569041
-0.213317 -0.082402 5.11304 12305355
-0.184329 -0.0793753 5.12794 10464182
-0.0968504 -0.0683613 5.28944 7762537
-0.267424 -0.0777256 5.14026 12371918
-0.264429 -0.078304 5.12326 12963284
-0.259404 -0.079313 5.11739 11715277
-0.248315 -0.0801891 5.09899 6188159
-0.237077 -0.0821776 5.07001 11120822
-0.235578 -0.0826739 5.07318 13687266
-0.221121 -0.0813753 5.09739 9938869
-0.214763 -0.0812848 5.09312 9148327
-0.209548 -0.0806317 5.10746 9543076
-0.20411 -0.080327 5.10831 9476769
-0.192857 -0.0777902 5.12609 11451590
-0.1647 -0.0769787 5.16461 4278609
-0.132932 -0.0732794 5.22482 9413803
-0.125785 -0.0723185 5.23804 2767954
-0.282442 -0.0744987 5.17761 7567235
-0.277259 -0.0747365 5.17766 10133931
-0.25148 -0.0801919 5.09836 13096928
-0.240633 -0.0810617 5.08704 12108747
-0.230563 -0.0813726 5.07741 10924478
-0.210967 -0.0798219 5.10534 8029070
-0.208433 -0.0805941 5.09928 11187907
-0.201055 -0.079805 5.10987 9412010
-0.192857 -0.0777902 5.12609 11451590
-0.192856 -0.0777901 5.12609 11451590
-0.18433 -0.0793754 5.12794 10464182
-0.111977 -0.0701559 5.25833 6584449
-0.0995733 -0.0684171 5.27413 6111279
-0.256132 -0.0788468 5.11626 11713994
283.163 246.925 2974.34 8293533
-0.244719 -0.080557 5.07789 13621731
-0.27755 -0.0718092 5.19421 8621205
-0.260262 -0.0772674 5.12201 10003892
-0.248887 -0.0791102 5.10241 5596023
-0.234228 -0.0811539 5.07126 12306131
-0.223464 -0.0805003 5.08531 11911625
-0.215574 -0.07877 5.10186 7701657
-0.206058 -0.0786439 5.10607 7436935
-0.202813 -0.0790346 5.10555 8424085
-0.189307 -0.0782605 5.11638 12240589
-0.174257 -0.0767403 5.14155 8424853
-0.256259 -0.0790068 5.09567 14477292
-0.250397 -0.0794557 5.08684 7701391
-0.236439 -0.080801 5.06684 9017256
-0.220209 -0.0790007 5.09816 12240333
-0.206058 -0.0786439 5.10607 7436935
-0.19891 -0.0782861 5.10985 11385540
-0.195252 -0.0778401 5.11318 11713222
-0.192055 -0.0783913 5.10972 7899808
-0.183576 -0.077059 5.12443 8622492
-0.139962 -0.0716655 5.20128 4870230
-0.0569522 -0.0519078 5.45059 10731210
-0.12442 -0.0671306 5.23743 7639971
0.362824 0.827327 15.8347 8819616
-0.228645 -0.0787214 5.09058 8688033
-0.206656 -0.0774544 5.10594 8620690
-0.206656 -0.0774545 5.10594 8620690
-0.173333 -0.0743109 5.14848 8753818
-0.288246 -0.0649955 5.21862 8748926
-0.277491 -0.0732182 5.15738 8817554
-0.263994 -0.0748872 5.12596 12898266
-0.263994 -0.0748872 5.12596 12898266
-0.260796 -0.0744659 5.12183 13556196
-0.254766 -0.0773656 5.10312 13622498
-0.246879 -0.0778123 5.09172 13490145
-0.240173 -0.0790105 5.07164 14805223
-0.227838 -0.0785492 5.07633 12109260
-0.223083 -0.0787786 5.0892 10399674
-0.202166 -0.0771279 5.10856 7964053
-0.195795 -0.0765324 5.10816 7437197
-0.196826 -0.0777214 5.10028 10529464
-0.125096 -0.0673218 5.22807 8364725
-0.252742 -0.0758944 5.10771 8426144
-0.2419 -0.0858521 4.98893 12700114
-0.232677 -0.0779786 5.08193 9608622
-0.213736 -0.0774959 5.09953 9081498
-0.203262 -0.0773829 5.09436 10003377
-0.190118 -0.0762645 5.11554 11188421
-0.177936 -0.0739053 5.14248 9872813
-0.17047 -0.0727591 5.15418 6712178
-0.141854 -0.0691076 5.20068 3025964
-0.227838 -0.0785492 5.07633 12109260
-0.218894 -0.0762855 5.09404 12043467
-0.193647 -0.0762891 5.10762 10595517
-0.166503 -0.0708955 5.15133 10465204
-0.263723 -0.0730215 5.1274 8950945
-0.257918 -0.0746854 5.11522 10990523
-0.250478 -0.0766227 5.08688 10399162
-0.250477 -0.0766226 5.08688 10399162
-0.23486 -0.0786568 5.06957 11648463
-0.221346 -0.0769078 5.09249 4871261
-0.121943 -0.0651402 5.2341 7837097
-0.261 -0.0733625 5.12009 9412013
-0.250478 -0.0766232 5.08687 10399162
-0.248577 -0.0746691 5.10093 12175314
-0.245555 -0.0791696 5.05908 13818592
-0.242371 -0.0777663 5.0694 14607588
-0.240236 -0.0780597 5.06645 12107198
-0.218894 -0.0762855 5.09404 12043467
-0.204031 -0.0753939 5.09679 9083048
-0.190604 -0.073307 5.11785 6713731
-0.27638 -0.0695691 5.15963 8554128
-0.240236 -0.0780597 5.06645 12107198
-0.240236 -0.0780597 5.06645 12107198
-0.235585 -0.0777723 5.07234 12240851
-0.232532 -0.0771913 5.07031 5266027
-0.211686 -0.073637 5.11581 9212568
-0.20678 -0.075114 5.10491 11648198
-0.266233 -0.0716299 5.12711 12437202
-0.258286 -0.0731058 5.11037 9214889
-0.246367 -0.0749126 5.093 10990271
-0.22907 -0.0770413 5.07616 11713736
-0.217219 -0.0751232 5.09708 12701914
-0.207561 -0.0740843 5.10552 14409699
-0.202015 -0.0726785 5.10521 10792893
-0.201267 -0.0749846 5.09561 8885409
-0.18868 -0.0725745 5.11755 9214116
-0.184236 -0.0725869 5.13262 7372945
-0.18332 -0.0712017 5.12452 6910844
-0.263279 -0.0733165 5.10746 10463668
-0.253413 -0.0739518 5.10393 7831948
-0.24959 -0.0730117 5.10687 9016740
-0.24415 -0.074161 5.09469 12107206
-0.221483 -0.0748826 5.09183 12438480
-0.199808 -0.0736201 5.10809 10924479
-0.275579 -0.0682126 5.15019 7896714
-0.269974 -0.0684531 5.13338 9872303
-0.267918 -0.0699004 5.13105 9082530
-0.263124 -0.0711626 5.11274 12108746
-0.253204 -0.0704495 5.11991 9806505
-0.251077 -0.0767246 5.04967 8096153
-0.248236 -0.0739829 5.09268 8951463
-0.244086 -0.0777911 5.05499 14015709
-0.241422 -0.0781229 5.05353 11976642
-0.224683 -0.0746654 5.08005 7502725
-0.217748 -0.0738024 5.0954 9018026
-0.217748 -0.0738024 5.0954 9018026
-0.212112 -0.0739794 5.0959 9410461
-0.125081 -0.0613801 5.23046 10666709
-0.253204 -0.0704495 5.11991 9806505
-0.244853 -0.0758777 5.06951 12436166
-0.237926 -0.0768445 5.06008 13029594
-0.231088 -0.07498 5.07578 4409428
-0.227369 -0.075154 5.07718 8294303
-0.214646 -0.0733755 5.09666 12767706
-0.202015 -0.0726785 5.10521 10792893
-0.198737 -0.0723807 5.10787 10858425
-0.18332 -0.0712017 5.12452 6910844
-0.145822 -0.064209 5.18651 3026734
-0.262032 -0.0715488 5.11617 10529976
-0.256306 -0.0714432 5.10673 9346219
-0.251077 -0.0767246 5.04967 8096153
-0.242311 -0.0757532 5.06245 10331815
-0.233584 -0.0759375 5.06888 8160405
-0.227369 -0.075154 5.07718 8294303
-0.217177 -0.0732058 5.09173 5595242
-0.215356 -0.0748639 5.08541 11582147
-0.215356 -0.0748639 5.08541 11582147
-0.189881 -0.0697006 5.11984 6318458
-0.274848 -0.0659933 5.15443 10791860
-0.267396 -0.0680246 5.12981 11582920
-0.25193 -0.0702167 5.10566 8885153
-0.197968 -0.0715387 5.10354 6911101
-0.264929 -0.0680168 5.13347 9872302
-0.255757 -0.0690446 5.11368 6714502
-0.227169 -0.0726757 5.0837 4672601
-0.226905 -0.0737245 5.07726 4804704
-0.207219 -0.0722158 5.08878 9805994
-0.201137 -0.0712379 5.10098 10201010
-0.198286 -0.0690394 5.10322 7239811
-0.189881 -0.0697006 5.11984 6318458
-0.183875 -0.0671061 5.12484 5659747
-0.271373 -0.0653349 5.14187 10463155
-0.260415 -0.0689184 5.1142 8819109
-0.25193 -0.0702167 5.10566 8885153
-0.249847 -0.0704134 5.10403 5924467
-0.246797 -0.0717044 5.07561 6187897
-0.237871 -0.074472 5.06262 9608618
-0.234413 -0.0747124 5.06544 4146773
-0.216889 -0.0711393 5.09627 3424592
-0.211454 -0.0699277 5.09893 10464694
-0.207219 -0.0722158 5.08878 9805994
-0.263108 -0.0684142 5.1156 9016742
-0.273914 -0.0639649 5.13838 10990274
-0.269364 -0.0657432 5.12794 7502470
-0.261507 -0.0676965 5.11555 12175572
-0.259468 -0.0680072 5.11254 10858690
-0.258427 -0.0677535 5.11565 11451080
-0.243114 -0.0737447 5.06417 7699070
-0.237871 -0.074472 5.06262 9608618
-0.224322 -0.0714181 5.07954 7305599
-0.214115 -0.0704085 5.09625 6120816
-0.211454 -0.0699277 5.09893 10464694
-0.205783 -0.0692475 5.10786 9080986
-0.268124 -0.0665022 5.1218 7831182
-0.265303 -0.0672867 5.1144 12109263
-0.255764 -0.0690547 5.10054 9939128
-0.253581 -0.0676327 5.11178 4608353
-0.244236 -0.0698223 5.08701 5594732
-0.243114 -0.0737447 5.06417 7699070
-0.23588 -0.0732191 5.06505 9147296
-0.198287 -0.0690399 5.10321 7239811
-0.0503177 -0.0143381 5.57444 9938349
-0.165528 -0.0646622 5.14664 5726050
-0.241655 -0.0723809 5.06844 10069166
-0.215162 -0.0694788 5.09287 11451328
-0.192627 -0.068616 5.10643 5332334
-0.174237 -0.0655709 5.13418 3618626
-0.269954 -0.0640202 5.13181 12698568
-0.260101 -0.0653473 5.12088 12109010
-0.257533 -0.0667637 5.11459 7701654
-0.255298 -0.0677154 5.105 9807801
-0.220668 -0.0705157 5.08117 3027776
-0.204272 -0.0682721 5.09992 10002344
-0.196772 -0.0666005 5.10965 5857903
-0.180685 -0.064657 5.13039 5593952
-0.277657 -0.0602903 5.15546 10067369
-0.257139 -0.0663252 5.109 11451083
-0.233747 -0.072749 5.06439 4409684
-0.233747 -0.072749 5.06439 4409684
-0.209341 -0.0678245 5.09869 8029326
-0.207525 -0.0675935 5.10015 11121084
-0.173353 -0.0638736 5.13123 12308183
-0.134407 -0.0543605 5.20956 9020589
-0.24296 -0.0705485 5.08229 8094343
-0.214073 -0.0679712 5.09107 9477546
-0.18891 -0.0657109 5.11564 4871266
-0.246972 -0.0668941 5.08546 2434870
-0.214651 -0.0673191 5.09426 5990777
-0.209809 -0.0659072 5.10034 6516604
-0.206411 -0.0665578 5.09572 9805223
-0.202965 -0.0658092 5.10256 7436415
-0.196772 -0.0666005 5.10965 5857903
-0.232553 -0.0694561 5.06955 4742002
-0.190177 -0.0641367 5.1145 3293009
-0.270409 -0.061572 5.12284 11583176
-0.267159 -0.0621249 5.12038 13752286
-0.262837 -0.0640363 5.11056 12766681
-0.258904 -0.0644532 5.10871 7964565
-0.252806 -0.0656216 5.10033 12109524
-0.207663 -0.0644942 5.09964 6582139
-0.173002 -0.0615465 5.13409 11188926
-0.267159 -0.0621249 5.12038 13752286
-0.260408 -0.0636558 5.10941 8753824
-0.246972 -0.0668941 5.08546 2434870
-0.227293 -0.0675807 5.08071 2240840
-0.212893 -0.0650996 5.09628 6515574
-0.198311 -0.0644793 5.1042 7108226
-0.272912 -0.0596134 5.13632 8686999
-0.250067 -0.0658685 5.08721 4215913
-0.23674 -0.0693109 5.06157 5335169
-0.222976 -0.0663732 5.08345 4477797
-0.0836303 -0.0375174 5.31665 4471348
-0.0955733 -0.0422195 5.27304 7830659
-0.26056 -0.0620268 5.1101 13030107
-0.258426 -0.0625036 5.11031 8950175
-0.256534 -0.0637655 5.10255 8490913
-0.253558 -0.0642968 5.09533 12437200
-0.193922 -0.0616726 5.10735 4277843
-0.269338 -0.0591551 5.12596 8358812
-0.267382 -0.0600091 5.12428 10463672
-0.255437 -0.0613015 5.09996 10201788
-0.215252 -0.0638854 5.0964 9344932
-0.206431 -0.0634434 5.09982 9409949
-0.196339 -0.0604264 5.11954 6186865
-0.196617 -0.0622545 5.10801 4607835
-0.136262 -0.0489133 5.20453 6978172
-0.281624 -0.0531157 5.17848 9673375
-0.266056 -0.0594102 5.12248 12109005
-0.241597 -0.0662661 5.07584 2898253
-0.234883 -0.0647172 5.08694 3887467
-0.227865 -0.0652862 5.08685 1910325
-0.208284 -0.0630241 5.09938 8950427
-0.208284 -0.0630241 5.09938 8950427
-0.196339 -0.0604264 5.11954 6186865
-0.275018 -0.0570147 5.13943 6581113
-0.272438 -0.0576822 5.1274 11385029
-0.262932 -0.0609297 5.11155 8293529
-0.261081 -0.0596782 5.11581 13160923
-0.256661 -0.0617267 5.10411 13095387
-0.234883 -0.0647172 5.08694 3887467
-0.214262 -0.0623069 5.10073 10201784
-0.214262 -0.0623069 5.10073 10201784
-0.0339762 0.0509789 5.89491 5199710
-0.198334 -0.0621251 5.10001 7633799
-0.268984 -0.0609923 5.10568 10070199
-0.264703 -0.0595098 5.11498 11583690
-0.259286 -0.0606154 5.10578 12043215
-0.25249 -0.0618999 5.09491 6710641
-0.219217 -0.0625653 5.09153 10596282
-0.206811 -0.0628327 5.09383 5331039
-0.097285 -0.0347708 5.27103 4868940
-0.0956711 -0.0378275 5.2697 4737357
-0.261694 -0.0601065 5.10923 13161693
-0.255437 -0.0613015 5.09996 10201788
-0.22547 -0.0629729 5.08954 3756135
-0.219217 -0.0625653 5.09153 10596282
-0.212439 -0.0623151 5.09218 4870752
-0.194083 -0.0601418 5.10948 7042689
-0.255476 -0.0602749 5.09971 12372952
-0.240269 -0.0631444 5.08578 3755361
-0.21532 -0.0605862 5.09398 10070200
-0.28393 -0.0503874 5.16475 7829110
-0.271576 -0.056891 5.12311 12108750
-0.26559 -0.0599434 5.10326 9477804
-0.252799 -0.0607492 5.09647 11318722
-0.211348 -0.0607232 5.09564 5857134
-0.206497 -0.0600262 5.09917 5331038
-0.149094 -0.0485419 5.17694 5923947
-0.273826 -0.0557798 5.12644 11516872
-0.258136 -0.0602971 5.09402 12306133
-0.218075 -0.0603792 5.09465 12109521
-0.216031 -0.0598466 5.09185 10926022
-0.21307 -0.0605711 5.09342 6648191
-0.192959 -0.056222 5.11985 4871007
-0.0917966 -0.0318371 5.28126 8949905
-0.0553805 -0.0191256 5.36207 7232855
-0.26559 -0.0599434 5.10326 9477804
-0.262197 -0.0591015 5.10287 9608872
-0.252545 -0.0599675 5.09477 11779789
-0.228155 -0.06162 5.08456 2500916
-0.202981 -0.0586689 5.10465 7896197
-0.28105 -0.0462863 5.18271 9016477
-0.244284 -0.0609696 5.08591 4737103
-0.242781 -0.0611448 5.08186 2501173
-0.261391 -0.0565575 5.10858 8884639
-0.251611 -0.058776 5.09376 8488856
-0.198964 -0.0574898 5.10547 5265252
-0.145324 -0.0445687 5.18341 7043459
-0.0988977 -0.0293132 5.27313 5459015
-0.0779318 -0.0264247 5.3198 5986646
-0.275598 -0.0474787 5.16023 9608875
-0.269507 -0.0535964 5.1245 8162205
-0.258212 -0.0574294 5.10158 11517647
-0.256135 -0.05864 5.09502 10991559
-0.212077 -0.055416 5.10289 9280167
-0.271733 -0.0532805 5.12416 10793408
-0.251026 -0.058774 5.08933 5789794
-0.212077 -0.055416 5.10289 9280167
-0.210024 -0.0577647 5.09449 8947858
-0.206186 -0.0574721 5.09536 5527906
-0.203469 -0.0572646 5.09566 5265509
-0.195601 -0.0554146 5.10861 5923438
-0.251504 -0.0551963 5.10568 9872827
-0.232037 -0.0595998 5.08088 4868946
-0.217156 -0.0572849 5.09228 11385796
-0.211483 -0.0565101 5.09851 9741492
-0.158186 -0.0468248 5.15519 6186345
-0.259046 -0.0563084 5.09803 11056071
-0.256862 -0.0563184 5.09882 8425892
-0.254839 -0.0565879 5.09147 13030369
-0.24865 -0.0572596 5.09275 3945530
-0.217029 -0.0573087 5.09042 11320775
-0.211483 -0.0565105 5.09851 9741492
-0.210529 -0.0567723 5.09406 8093835
-0.099539 -0.0276176 5.27347 8160385
-0.076696 -0.021345 5.30391 6118235
-0.297424 -0.0374836 5.22881 9279652
-0.24885 -0.0577401 5.08127 11975357
-0.229046 -0.0590807 5.07832 5132372
-0.209475 -0.056946 5.09034 5988453
-0.0906125 -0.0267524 5.27811 6447971
-0.278737 -0.0469018 5.14921 7831176
-0.26613 -0.0526026 5.11572 9411245
-0.260086 -0.0551025 5.09929 12766683
-0.214467 -0.0544875 5.09498 8818584
-0.146954 -0.0426148 5.16939 3815223
-0.146954 -0.0426148 5.16939 3815223
-0.120552 -0.0309064 5.23223 3419176
-0.0978148 -0.0258886 5.27087 7107442
-0.264044 -0.0532481 5.11067 12635606
-0.234411 -0.0578251 5.07936 3288885
-0.204939 -0.0531072 5.10419 8554897
-0.279388 -0.0458992 5.14535 9213860
-0.259386 -0.0539842 5.10004 13029341
-0.257521 -0.0538587 5.10027 9543606
-0.237664 -0.058671 5.06916 4079175
-0.217845 -0.0552858 5.08975 10858682
-0.150931 -0.0386122 5.16907 9215913
-0.132835 -0.0343877 5.20547 8358279
-0.273474 -0.0482285 5.13934 10530493
-0.261243 -0.0536777 5.10171 13292768
-0.253062 -0.0550255 5.08936 12964577
-0.239571 -0.0594936 5.06273 4737361
-0.195329 -0.0488741 5.10475 5726573
-0.130265 -0.0341521 5.20048 9940918
-0.273071 -0.0474652 5.13252 8358557
-0.255702 -0.0540501 5.09202 8623270
-0.250549 -0.054293 5.08989 10528946
-0.24845 -0.0553461 5.08573 11846095
-0.235337 -0.0563927 5.07924 5330012
-0.214413 -0.0537709 5.0941 10134444
-0.205677 -0.0503033 5.10564 5922925
-0.159514 -0.0418194 5.14982 8030608
-0.151869 -0.0401222 5.16686 10138559
-0.14981 -0.0397229 5.16613 5400694
-0.104545 -0.0230388 5.26392 5001039
-0.212304 -0.0539321 5.09069 9016220
-0.176964 -0.0452589 5.13332 4278864
-0.104168 -0.0245786 5.25103 7238511
-0.280528 -0.042871 5.1484 10793150
-0.2733 -0.0463202 5.13217 8490400
-0.255523 -0.0523521 5.09277 11518417
-0.203182 -0.0516363 5.09858 4475477
-0.145063 -0.03741 5.17045 4410192
-0.252825 -0.0533264 5.08897 7438486
-0.247688 -0.055074 5.08075 9936035
-0.234462 -0.0546605 5.08027 3158847
-0.209567 -0.0520029 5.09748 6515313
-0.20807 -0.0522051 5.09218 5922668
-0.178546 -0.0458284 5.12553 4609117
-0.15093 -0.0386118 5.16908 9215913
-0.0793183 -0.0119199 5.30599 7371384
-0.303235 -0.019754 5.27002 11252666
-0.266402 -0.0463757 5.12511 10595252
-0.261734 -0.0487741 5.1103 7437711
-0.255523 -0.0523521 5.09277 11518417
-0.250705 -0.0534728 5.08536 9346217
-0.216731 -0.0514155 5.09101 9739942
-0.216731 -0.0514155 5.09101 9739942
-0.201918 -0.0482767 5.10783 7632512
-0.117881 -0.0265362 5.22341 5990769
-1.12804 -1.85466 -3.66607 6056308
-0.270216 -0.0472459 5.11521 11517125
-0.268883 -0.0486187 5.10929 10792632
-0.251826 -0.053214 5.08484 6450561
-0.239635 -0.0546735 5.07596 5201005
-0.207582 -0.0510816 5.09206 5395809
-0.204328 -0.0504102 5.09647 7041145
-0.181004 -0.0437361 5.11892 3686475
-0.12741 -0.0289033 5.20564 4539978
-0.258365 -0.0465923 5.1151 7371405
-0.254404 -0.0535621 5.08144 9609908
-0.250249 -0.0524716 5.08516 4673892
-0.245958 -0.0540832 5.07541 4807534
-0.195329 -0.0488741 5.10475 5726573
-0.252215 -0.0522806 5.08133 7240842
-0.235665 -0.0523488 5.07629 3029325
-0.218254 -0.0507072 5.08552 9475998
-0.107416 -0.0205572 5.24237 9215384
-0.0685282 -0.00415578 5.31349 7565160
-0.25862 -0.0510265 5.08734 6385024
-0.251276 -0.0515478 5.08491 7371402
-0.216685 -0.0512412 5.08333 10727096
-0.213215 -0.0512841 5.08676 6712439
-0.210126 -0.0483747 5.09708 6250857
-0.210155 -0.0508406 5.08392 7435644
-0.152453 -0.034558 5.16058 6383726
-0.267272 -0.0478334 5.10839 9016483
-0.256549 -0.0503332 5.08776 4214375
-0.249432 -0.051566 5.08214 2965074
-0.228695 -0.0497155 5.08538 4149351
-0.219926 -0.0503163 5.09029 4078921
-0.218254 -0.0507072 5.08552 9475998
-0.164688 -0.0379095 5.14512 3685184
-0.239109 -0.0534667 5.06571 2105898
-0.275049 -0.0417489 5.12755 8292508
-0.272206 -0.0428377 5.12372 11582403
-0.260179 -0.0487481 5.09305 5989498
-0.257745 -0.047551 5.09476 9676215
-0.24963 -0.051297 5.07446 14213606
-0.210618 -0.0475327 5.09362 8553096
-0.24689 -0.0499601 5.08155 12700371
-0.238739 -0.0492435 5.0851 2169630
-0.253887 -0.0484863 5.08607 2565937
-0.250893 -0.0487584 5.08805 9278359
-0.228949 -0.063311 5.01514 5133151
-0.275312 -0.0395184 5.12933 11452106
-0.26365 -0.0425014 5.10922 5660781
-0.211119 -0.0444492 5.09451 8225162
-0.281478 -0.0360194 5.14118 7831952
-0.27408 -0.0397486 5.12099 9147815
-0.256198 -0.0429559 5.1069 6647417
-0.254204 -0.0468153 5.08875 13820137
-0.250806 -0.0454558 5.09355 10464954
-0.222758 -0.0475029 5.08345 3751755
-0.0994077 -0.00883148 5.25642 6184801
1.89181 0.951717 9.64918 7890010
-0.284865 -0.0371931 5.1388 5595761
-0.261709 -0.0460313 5.08825 6252665
-0.271295 -0.0415388 5.11141 11188163
-0.265355 -0.0423828 5.10447 5858166
-0.252941 -0.0476952 5.08124 12307927
-0.24759 -0.0470554 5.08107 8754085
-0.216694 -0.0452802 5.08761 4343895
-0.193812 -0.0399495 5.11018 3817545
-0.148727 -0.0285654 5.16607 5002074
-0.282897 -0.0364019 5.13558 10070457
-0.25001 -0.0474363 5.07797 10859460
-0.173593 -0.0340402 5.13388 3356482
-0.261181 -0.0410292 5.10465 10661305
-0.253296 -0.0450179 5.08548 5332332
-0.247638 -0.0464715 5.07912 9740469
-0.245052 -0.0473312 5.0745 10858685
-0.236106 -0.0473524 5.07539 4998987
-0.195061 -0.0389935 5.10952 5528164
-0.150375 -0.0268788 5.16288 5857894
-0.257301 -0.040999 5.10387 11188938
-0.248687 -0.0460239 5.08106 8293280
1.13963 0.630094 8.02536 8686986
-0.266157 -0.0403771 5.10437 7504273
-0.261863 -0.0422132 5.09695 10069164
-0.248337 -0.0443138 5.08274 4280936
-0.246737 -0.0461248 5.07548 7437972
-0.224413 -0.0441892 5.08304 2565419
-0.221221 -0.0426812 5.08702 4542815
-0.212891 -0.0424417 5.09053 5593708
-0.0661888 0.0144505 5.33583 5594973
1.15948 0.651802 8.12508 4536370
-0.264774 -0.0408144 5.10204 11516612
-0.243854 -0.0459856 5.07541 3948880
1.89975 0.793621 8.61476 7562587
-0.272832 -0.0375012 5.1154 11056580
-0.263733 -0.0402083 5.10211 9542569
-0.235065 -0.0450349 5.07356 3947588
1.10496 0.631833 7.94851 6712681
-0.262321 -0.0403086 5.09841 12833246
-0.257941 -0.0421634 5.08958 8492458
-0.257941 -0.0421634 5.08958 8492458
1.25308 0.704257 8.2471 4604482
2.52579 1.12113 9.94059 11112821
-0.265307 -0.039976 5.0959 11451333
-0.264604 -0.0378092 5.10876 10793663
-0.250715 -0.0431206 5.08136 5401476
-0.226626 -0.0403722 5.09055 4212826
1.12659 0.63001 7.88457 7038304
2.59425 1.18351 10.1573 9402721
-0.27041 -0.0369545 5.10692 11450309
-0.199563 -0.03788 5.09654 4803670
-0.149324 -0.022146 5.16173 8294811
-0.124797 -0.0096928 5.21575 7505811
-0.124797 -0.0096928 5.21575 7505811
1.17963 0.657875 8.00104 7038304
3.32 1.47906 11.3216 7564904
-0.260566 -0.0397729 5.0929 12635869
-0.256848 -0.0402852 5.09115 4477543
-0.254348 -0.0407312 5.09 5465984
-0.156015 -0.0230335 5.15365 7963273
2.39228 1.13532 9.88262 7889494
2.80003 1.28225 10.463 6116685
-0.26884 -0.0361607 5.10731 11714507
-0.150681 -0.0207673 5.16192 6452609
-0.106112 -0.000948282 5.24257 6056051
1.11501 0.674207 7.99516 7831678
1.22293 0.720542 8.17878 4274231
1.29896 0.721476 8.1989 11766370
-0.261022 -0.0391238 5.09084 9281457
-0.261022 -0.0391238 5.09084 9281457
-0.245888 -0.0417177 5.0793 5399935
0.412084 0.36738 6.74729 9414833
1.76588 0.801286 8.47272 6510933
-0.271697 -0.0339637 5.11233 7173507
-0.268225 -0.0357528 5.10631 9411497
-0.23989 -0.041369 5.07938 3293273
-0.157099 -0.0221338 5.1512 6321800
1.27932 0.7284 8.14301 8018242
-0.265731 -0.0367323 5.09753 11057091
-0.256908 -0.0360069 5.10066 7637148
-0.2304 -0.0403838 5.07676 5004399
1.59967 0.777769 8.22749 6643547
-0.266902 -0.0340361 5.10585 8555673
-0.265046 -0.0357071 5.09807 10201013
-0.227439 -0.0400037 5.07674 3751498
-0.153387 -0.0187218 5.15561 8753307
1.10028 0.691198 7.9421 6908263
1.54622 0.724933 8.06404 7631214
-0.285714 -0.0221912 5.16116 10860742
-0.262602 -0.0350121 5.0977 10002604
-0.257426 -0.0380166 5.08723 4807536
1.59967 0.777769 8.22749 6643547
-0.282002 -0.021706 5.14729 8424863
-0.265735 -0.0339029 5.09942 9280165
-0.261464 -0.033726 5.10133 10398903
1.13272 0.687922 7.86266 6248528
1.32424 0.768951 8.14419 8092019
-0.269576 -0.0322774 5.10375 6976126
-0.266902 -0.0340361 5.10585 8555673
-0.117037 0.00592115 5.24117 6057598
-0.117014 0.00593804 5.24124 6057598
2.75283 1.44171 10.6498 9608090
1.89822 0.980901 8.90021 5719874
1.62063 0.780643 8.14282 5525324
-0.287994 -0.0169973 5.16813 5925754
-0.259605 -0.0364065 5.08545 8623014
1.08308 0.659199 7.70342 6709598
1.17468 0.675478 7.79214 7698039
-0.265735 -0.0339029 5.09942 9280165
-0.259605 -0.0364066 5.08545 8623014
-0.305328 0.691676 7.67948 8029080
1.78275 0.907507 8.56935 5789011
2.11267 1.0508 9.09868 7899023
-0.269579 -0.0315232 5.10284 10002601
-0.26305 -0.0328958 5.09186 6253700
-0.28548 -0.0174073 5.1573 11977936
-0.266886 -0.0290322 5.10891 9938100
-0.25953 -0.0304011 5.10367 9214379
1.15002 0.748172 7.95744 8359308
1.45408 0.863844 8.36991 7895413
1.67784 0.848654 8.29478 5657170
-0.261589 -0.0324264 5.09455 10663110
-0.254196 -0.0377179 5.07015 12373208
-0.212056 -0.030997 5.09387 6382186
-0.130237 -0.00231608 5.19437 6914190
1.68465 0.952846 8.6385 7105638
1.74084 0.943537 8.61519 8620682
1.90546 1.01372 8.86266 8686993
1.84038 0.980293 8.74173 8686993
-0.264446 -0.0314552 5.0962 5859194
-0.205373 -0.0289436 5.09866 6251887
2.08422 1.08177 9.08626 8820123
-0.284385 -0.013856 5.15843 10861003
-0.267071 -0.0285568 5.10316 9148584
-0.25953 -0.0304011 5.10367 9214379
-0.254475 -0.0333228 5.08234 11384773
1.56448 0.884843 8.33859 5063999
-0.264617 -0.0301022 5.09757 6713989
-0.262667 -0.0307778 5.09418 11649236
-0.236204 -0.0328734 5.08302 3683390
-0.22957 -0.0328776 5.08401 3950684
-0.213243 -0.0305516 5.09005 4867403
-0.150483 -0.00886783 5.16393 3289910
1.2121 0.796139 8.02392 7435380
1.89907 1.01458 8.76675 5195330
1.4979 0.793062 7.97364 6117720
-0.273489 -0.0260222 5.11243 6580600
-0.248223 -0.0337099 5.08043 3617853
-0.213802 -0.0284245 5.09539 6514546
-0.288747 -0.0102776 5.16773 4278873
-0.271202 -0.0284244 5.09809 8884639
-0.268401 -0.0278971 5.09859 12042692
-0.24881 -0.0342628 5.07494 7171188
-0.184478 -0.0209643 5.11707 10266025
1.2577 0.736015 7.75091 7897472
-0.280054 -0.0190411 5.13184 4541790
-0.268401 -0.0278963 5.09859 12042692
-0.249144 -0.0332682 5.07805 9409180
-0.156898 -0.0111239 5.14883 6449776
1.17898 0.800353 7.96638 6381664
1.28046 0.835285 8.09968 6445908
1.35332 0.832456 8.07766 7897477
1.73381 0.951883 8.47855 5721160
1.57294 0.852903 8.09542 7635083
-0.286013 -0.0131725 5.15226 10662339
-0.268401 -0.0278971 5.09859 12042692
-0.252238 -0.0321575 5.08048 15331572
-0.228397 -0.0321745 5.07742 3223357
-0.209571 -0.027354 5.09297 6250859
-0.189679 -0.0217721 5.1102 3157557
-0.186267 -0.0199174 5.11235 11122364
-0.142973 -0.00377939 5.17094 5396824
1.3619 0.867931 8.16195 6052436
1.61569 0.878052 8.17672 8491681
-0.284135 -0.012771 5.15328 7438489
-0.259825 -0.029872 5.08978 12372696
-0.222345 -0.0303213 5.08203 5462891
-0.187529 -0.018849 5.11976 3355193
-0.264286 -0.0279936 5.09343 11648976
-0.249093 -0.0336536 5.07335 11515843
-0.243317 -0.0294079 5.0855 14081762
-0.186267 -0.0199174 5.11235 11122364
-0.132225 0.00308889 5.18926 8557985
1.24411 0.769946 7.77982 7302762
1.47652 0.8696 8.11385 8883336
1.54313 0.884137 8.14179 9739675
-0.287932 -0.0107338 5.15674 6847119
-0.280004 -0.0153851 5.1402 4408659
-0.140278 0.000242752 5.17764 6450031
2.16044 1.35045 9.69124 7501685
1.59626 0.930378 8.2877 5129796
1.60869 0.881656 8.18091 7700621
1.77052 0.981305 8.45055 6647672
-0.289822 -0.00843183 5.16205 8296875
-0.281545 -0.0138501 5.14155 9410981
-0.27578 -0.0195351 5.12187 9673893
-0.26683 -0.0255802 5.09836 8555680
-0.260464 -0.0278363 5.09121 12504026
-0.259504 -0.0265233 5.09532 12438490
-0.255178 -0.0319891 5.07305 9873079
-0.249501 -0.0333859 5.06751 13950953
-0.247379 -0.033492 5.06839 9674929
-0.242463 -0.0318895 5.0752 12501187
-0.216978 -0.0283335 5.08501 4935002
-0.214899 -0.0271297 5.08777 6382960
-0.18392 -0.0180461 5.11518 8885405
2.16036 1.3504 9.69108 7501685
1.14854 0.732342 7.61652 4933442
1.69789 0.942518 8.27323 5923173
-0.28592 -0.00813334 5.16176 4739945
-0.27921 -0.0137779 5.13694 5857134
-0.249501 -0.0333859 5.06751 13950953
-0.139751 0.00173749 5.17698 6779254
1.04417 0.733807 7.58195 6317151
1.02779 0.718571 7.50846 6183768
-0.274306 -0.0190556 5.11783 9674413
-0.264355 -0.025874 5.09267 6910597
1.04417 0.733807 7.58195 6317151
1.75287 1.15197 8.96867 6384741
1.25939 0.807919 7.81605 7700091
1.33816 0.831487 7.89202 7698804
-0.283329 -0.0109973 5.14401 6780813
-0.245746 -0.0252348 5.09228 12503511
-0.245029 -0.0299038 5.07534 9411759
2.30275 1.45853 9.90914 6645347
1.24025 0.734764 7.55457 8095889
-0.258384 -0.024664 5.09433 12241622
-0.186033 -0.0173979 5.11104 4542042
1.25671 0.886911 8.04074 6907748
1.02779 0.718571 7.50846 6183768
-0.28441 -0.00976143 5.14546 9218755
-0.24882 -0.0302197 5.07334 13359328
-0.216626 -0.0251409 5.08466 5790565
1.58109 0.992019 8.31769 5855829
1.42915 0.840409 7.84451 4931905
-0.250899 -0.0284518 5.07474 8820390
-0.241401 -0.0296354 5.07578 13424350
-0.222489 -0.0260968 5.07976 3749954
-0.157534 -0.00374391 5.14852 9213084
-0.284304 -0.0132586 5.12764 10469586
-0.278832 -0.00717974 5.15038 7898776
-0.250899 -0.0284518 5.07474 8820390
-0.242965 -0.031235 5.06188 12109525
-0.18605 -0.0164771 5.10637 9016736
-0.18605 -0.0164771 5.10637 9016736
0.874921 0.651267 7.21809 10985887
0.824224 0.596541 6.9985 10922692
-0.317391 -0.0430278 5.03296 7890256
-0.281027 -0.00919972 5.1394 5793146
-0.278157 -0.00622049 5.14806 4937579
-0.266776 -0.0229699 5.09152 11452623
-0.239862 -0.0282595 5.06987 12239054
1.35066 0.858648 7.80019 6513246
1.72093 1.0485 8.40716 6777708
-0.255353 -0.0232765 5.09046 11319753
-0.249001 -0.0277295 5.07171 11451844
-0.182361 -0.00893804 5.13127 10463666
1.09057 0.75514 7.47386 10856888
1.44869 0.956629 8.09837 5064519
1.35916 0.841723 7.70675 8689054
-0.254018 -0.0271743 5.06627 11451854
-0.253467 -0.0325272 5.04549 8096413
-0.195713 -0.0177877 5.09636 3882053
1.72948 1.06345 8.3837 7436927
-0.279328 -0.00782609 5.13861 4213854
-0.251478 -0.0278271 5.06833 12635865
-0.241946 -0.0248717 5.07632 10793666
-0.280998 -0.00488399 5.14529 8690353
-0.26128 -0.0235745 5.08223 7964317
-0.258712 -0.0255498 5.07547 7438230
-0.253563 -0.0246673 5.07755 9149353
-0.24873 -0.0264768 5.07056 11714763
1.33674 0.877241 7.77394 10527149
-0.264021 -0.0211443 5.08996 11714508
-0.254907 -0.0258679 5.07276 12438228
-0.247751 -0.0259209 5.07104 9411756
-0.19109 -0.0139581 5.10149 12043983
-2.47959 -2.0055 -0.988729 9803678
-0.237198 -0.0241282 5.07405 11319236
-0.23882 -0.0237966 5.07355 13226715
-0.189656 -0.0127403 5.10112 7900571
-0.245653 -0.0272231 5.0631 9675186
-0.244001 -0.0294708 5.05422 6384253
-0.242515 -0.0207782 5.07974 9608881
0.128835 0.146564 5.55196 11317161
0.67326 0.504388 6.55382 13419188
-0.236759 -0.0213176 5.06707 7372946
-0.236676 -0.0178996 5.07057 4542566
-3.03003e+53 -2.79065e+53 -7.32646e+53 5986911
-0.211008 -0.167988 5.19177 2630441
-0.209129 -0.16623 5.19535 9547200
-0.199337 -0.171332 5.21309 8159107
-0.228695 -0.158643 5.18695 13753831
-0.245113 -0.166782 5.2624 9938616
-0.235982 -0.15231 5.17652 14148073
-0.224549 -0.150679 5.16283 13883868
-0.226328 -0.139494 5.10009 13621213
-0.201966 -0.157089 5.18259 11781330
-0.204836 -0.145791 5.15784 12700373
-0.22021 -0.140609 5.14442 9279913
-0.205749 -0.139902 5.15078 9477294
-0.203236 -0.142249 5.15632 12043215
-0.238786 -0.132913 5.13419 14147298
-0.218523 -0.133534 5.13779 13949407
-0.22545 -0.130667 5.12859 10002860
-0.24193 -0.130737 5.14567 10134191
-0.21226 -0.129295 5.12364 13687008
-0.228405 -0.128359 5.14019 12963025
-0.214275 -0.12796 5.12621 6318454
-0.235939 -0.123837 5.12837 14542057
-0.26588 -0.127931 5.23172 10004657
-0.228721 -0.123195 5.13052 10793662
-0.215141 -0.1242 5.13439 14278886
-0.242024 -0.121138 5.12693 13029850
-0.224308 -0.117366 5.10936 13884644
-0.23135 -0.117206 5.12238 9608104
-0.221514 -0.115745 5.10785 8292246
-0.212611 -0.117428 5.11479 8818845
-0.246311 -0.115666 5.13604 8885406
-0.239435 -0.114205 5.12182 6844281
-0.226886 -0.114101 5.12338 9871790
-0.255193 -0.11311 5.14007 12832471
-0.23083 -0.114843 5.12144 12371407
-0.224408 -0.11223 5.10545 8424345
-0.211024 -0.113191 5.10338 13950954
-0.218983 -0.112718 5.1169 13950434
-0.199495 -0.112791 5.12386 6976895
-0.117033 -0.124511 5.3039 7692625
-0.247954 -0.110297 5.11639 11123393
-0.241283 -0.110166 5.11496 14345192
-0.216976 -0.108543 5.11509 11516613
-0.207665 -0.108885 5.11105 5922671
-0.212071 -0.108497 5.11607 8753823
-0.259547 -0.105744 5.12383 4147799
-0.247952 -0.105262 5.11667 5332075
-0.219503 -0.105356 5.1058 10530235
-0.199568 -0.106178 5.11433 5593696
-0.251005 -0.101673 5.13338 3161420
-0.197119 -0.104103 5.10904 3225670
-0.259678 -0.100055 5.13641 10991810
-0.111468 -0.102809 5.28004 8820634
-0.264609 -0.0973305 5.15077 2634565
-0.190962 -0.0996001 5.12369 9346727
-0.266476 -0.0938372 5.1574 12241107
-0.260245 -0.0945735 5.13202 2828847
-0.209117 -0.0945223 5.11313 2895927
-0.205588 -0.0946684 5.11349 5791331
-0.268382 -0.0905648 5.13436 4078142
-0.168235 -0.089437 5.16962 8030353
-0.256256 -0.0867694 5.14157 9476519
-0.113241 -0.0843633 5.26224 3948607
-0.107116 -0.0772364 5.26439 3287591
-0.211171 -0.0838959 5.10342 5591375
-0.24825 -0.0821845 5.09735 13688807
-0.237573 -0.0828974 5.06792 13358041
-0.160448 -0.0782463 5.17172 7502710
-0.234229 -0.0811541 5.07125 12306131
-0.210613 -0.0794762 5.10378 8489875
-0.210079 -0.0764613 5.10444 11582921
-0.253413 -0.0739518 5.10393 7831948
-0.218121 -0.0760172 5.08965 12372692
-0.265522 -0.070588 5.11573 11451332
-0.232501 -0.0756893 5.06716 4343635
-0.213598 -0.0727156 5.09544 11057346
-0.218993 -0.0722397 5.09135 3096143
-0.208459 -0.0713013 5.09976 8557209
-0.213931 -0.0703681 5.09949 5858413
-0.190313 -0.0695961 5.11045 6845314
-0.20229 -0.0697309 5.09795 7239811
-0.213125 -0.0683612 5.09797 9214890
-0.199913 -0.0644945 5.12362 8818842
-0.269896 -0.0623155 5.12584 11056064
-0.256633 -0.0642673 5.10494 9412271
-0.229576 -0.077189 5.01183 4542301
-0.297873 -0.0444005 5.24138 9610674
-0.244058 -0.0664536 5.08105 4018535
-0.266355 -0.0591834 5.12408 12371920
-0.260429 -0.0595264 5.11467 12502736
-0.211922 -0.0614899 5.09294 6186355
-0.206497 -0.0600262 5.09917 5331038
-0.196232 -0.0592698 5.11064 7699846
-0.289639 -0.0465353 5.17961 6979726
-0.2744 -0.0507157 5.13126 9740463
-0.261903 -0.0560298 5.10062 9280687
-0.206563 -0.0557327 5.10054 5987682
-0.267685 -0.0528247 5.11955 8819620
-0.203576 -0.0520686 5.10741 7764869
-0.0749767 -0.0154412 5.31026 4274231
-0.11744 -0.0287271 5.22237 3681840
-0.26976 -0.048795 5.11439 11385795
-0.252527 -0.0536433 5.0862 7240850
-0.213936 -0.0508179 5.09007 8489878
-0.247954 -0.051464 5.0824 3292244
-0.278756 -0.0399985 5.13599 7765903
-0.276502 -0.0403717 5.12887 11187647
-0.247987 -0.0505044 5.07806 13819367
-0.263488 -0.0440398 5.10058 5857647
-0.213777 -0.0470534 5.08209 8225419
-0.25001 -0.0474363 5.07797 10859460
-0.288316 -0.026203 5.18095 7437966
-0.257555 -0.0454399 5.09061 6317941
-0.244691 -0.0458355 5.06664 4938871
1.33326 0.747112 8.35672 5392964
-0.259794 -0.0390657 5.09375 10267839
2.5542 1.20441 10.1294 7170405
-0.262901 -0.0381929 5.094 6647167
-0.260018 -0.0372484 5.09215 5463927
1.21852 0.704211 7.96687 12032889
-0.280594 -0.0187649 5.16691 8685978
-0.151285 -0.016953 5.16003 7637144
-0.140468 -0.0121667 5.17812 7245473
1.62164 0.770079 8.14799 6182480
-0.268515 -0.0288261 5.11951 8622246
2.58203 1.32977 10.2051 5785409
1.00595 0.666299 7.66249 6184797
1.86307 0.989179 8.80121 8290690
