# .PCD v0.7 - Point Cloud Data file format
VERSION 0.7
FIELDS x y z rgba
SIZE 4 4 4 4
TYPE F F F U
COUNT 1 1 1 1
WIDTH 1316
HEIGHT 1
VIEWPOINT 0 0 0 1 0 0 0
POINTS 1316
DATA ascii
0.0757197 -0.107696 5.45563 3882306
0.0737717 -0.107276 5.45901 8885148
0.0607488 -0.110896 5.43676 6845305
11256.8 5960.59 38374.1 6514016
10088.6 5264.89 33990.5 6445653
21957.5 11135.6 72137 6712934
0.115991 -0.108714 5.44575 4608095
0.108871 -0.107209 5.4574 8425122
0.0845023 -0.105877 5.46815 6251119
0.0647671 -0.109974 5.4441 6320254
14922.9 7300.44 46245.4 7633013
0.120659 -0.110729 5.43408 10466247
0.11966 -0.110618 5.43449 7701402
0.0967856 -0.106412 5.46386 13950691
0.0877026 -0.105934 5.46897 3619399
0.0850865 -0.10575 5.4703 3750726
6283.57 3426.16 21527.8 6908004
13979.9 6828.99 42420.5 8291968
0.101557 -0.1054 5.47172 11189965
0.0981029 -0.105048 5.47592 13951210
0.0744645 -0.107516 5.46195 4674141
15230.8 7892.66 48523.8 8620163
7315.27 3511.67 21628.8 4606277
-46938.3 23917 156557 12433318
0.113669 -0.109034 5.44937 9739685
0.101087 -0.105633 5.47241 9807286
3431.5 1736.87 10680.6 5194559
0.121614 -0.112549 5.42783 5200496
0.117586 -0.110689 5.44003 9345445
0.0932776 -0.106022 5.47194 6051416
0.0684236 -0.109673 5.45217 8621716
0.0600875 -0.112721 5.434 8890810
7107.06 3468.88 20900.8 5130053
15416.8 7062.48 42417.5 9083038
18995.1 8494.09 50986.5 4936277
0.0947583 -0.105881 5.47471 13424351
0.0851032 -0.106783 5.46998 5922665
0.125263 -0.113603 5.42575 5727602
0.0887234 -0.106089 5.47495 6249313
0.0740521 -0.108359 5.46208 9148579
0.0641968 -0.111343 5.44546 4342600
6897.72 3427.62 20175.5 5328206
11779.8 5685.2 33587.5 7368811
0.122986 -0.112725 5.43224 4345174
0.118248 -0.111668 5.44009 7702686
0.114016 -0.110566 5.44564 9477292
0.0872734 -0.107146 5.46953 3947590
0.0760548 -0.108723 5.46097 5059895
0.0745007 -0.108616 5.46187 5002851
0.0683502 -0.110754 5.44959 8095630
0.067795 -0.11044 5.45216 7505300
0.062077 -0.112231 5.44128 4736580
18684 9977.91 58311.5 11449806
12331.8 6113.53 35552.3 8620678
-49438.3 25663.4 158617 9606285
-44710.6 24111.5 149210 5659227
0.0751733 -0.108889 5.46156 11254727
0.0650837 -0.111698 5.44578 9149607
-0.489917 -0.440531 3.54092 11973033
8994.12 4764.5 27405.5 10131372
0.119255 -0.112393 5.43764 9086911
0.0985858 -0.106043 5.47869 11715277
0.0747394 -0.109074 5.46187 5924211
0.0740796 -0.109019 5.46225 4606548
0.101197 -0.107961 5.46931 12899291
0.0931175 -0.0929128 5.55756 9737883
0.0979423 -0.108252 5.46903 10596798
0.101385 -0.107816 5.47252 10399422
0.0953657 -0.107107 5.47861 9083053
0.104308 -0.108827 5.46813 8096159
0.101332 -0.108802 5.46941 12307155
0.0970696 -0.108918 5.46957 9149612
0.0930443 -0.108129 5.47411 11318979
-47601.5 27109.7 149772 6576717
0.0911447 -0.0933395 5.55682 8477526
0.0968933 -0.0319036 5.40414 9678006
0.0968029 -0.0342854 5.40428 2893351
0.0925275 -0.0357411 5.40679 5133153
0.0856474 -0.0378856 5.4117 5131595
0.0812619 -0.0402637 5.41945 7160360
0.103797 -0.0363665 5.40497 3026230
0.0974609 -0.037714 5.39804 13950690
0.0926441 -0.0466988 5.42888 13753056
0.108644 -0.0406235 5.40488 11781585
0.0814883 -0.0512746 5.43687 12305869
0.0976972 -0.0492774 5.42601 11058377
0.0841743 -0.0525842 5.43797 12832472
0.0831543 -0.0545828 5.43679 11912399
0.076686 -0.0561121 5.43902 10268347
0.0789103 -0.0568859 5.44126 9674925
0.0927585 -0.0580233 5.44527 9937582
0.0862051 -0.0564659 5.43753 13161177
0.0884674 -0.0591209 5.44684 8029848
0.120221 -0.0471154 5.39277 12437711
0.0968184 -0.0587542 5.44166 11583947
0.094576 -0.0589367 5.44242 13028561
0.0812445 -0.0623255 5.45209 7898260
0.0977578 -0.0608903 5.44348 14542314
0.0916697 -0.0616884 5.44671 7568782
0.0880655 -0.0633468 5.45596 14081508
0.0796683 -0.0609743 5.44282 7437459
0.0950724 -0.0613307 5.44343 11122375
0.0738457 -0.0622404 5.44429 6978442
0.0598093 -0.0502485 5.38192 3353903
0.0858516 -0.0634268 5.44992 8754854
0.0934844 -0.0642509 5.45097 13818337
0.0697842 -0.0619134 5.43396 9021879
0.0857111 -0.0662915 5.45741 6318716
0.0949995 -0.0641957 5.44478 10201525
0.102772 -0.0650603 5.44251 8952484
0.0987836 -0.0662376 5.44942 7898254
0.0899594 -0.0681532 5.45886 7043210
0.0756976 -0.0674609 5.44821 9873328
0.100975 -0.0694362 5.45692 11780292
0.0809227 -0.0694512 5.4551 10398899
0.112769 -0.0634643 5.41681 9279138
0.107371 -0.0656811 5.43144 6122357
0.100038 -0.0692564 5.45403 12502474
0.0935468 -0.0685364 5.44933 14410987
0.0876166 -0.070764 5.46101 10793916
0.0863568 -0.0695931 5.45529 9016740
0.0856246 -0.0713844 5.46801 10004146
0.0582299 -0.0637365 5.40336 3027507
0.111615 -0.0678923 5.43904 12372435
0.0866643 -0.0716801 5.46171 5398128
0.0852113 -0.0715012 5.46083 7831438
0.0729421 -0.0695651 5.44781 8425113
0.105515 -0.0691353 5.44251 8426145
0.0880959 -0.0717947 5.4609 10530236
0.102192 -0.070771 5.45049 5200746
0.103892 -0.0713423 5.44643 2502975
0.0853045 -0.072819 5.4575 2044745
0.0726828 -0.0731239 5.44729 11649738
0.108254 -0.0726133 5.4455 10662846
0.0921843 -0.0755361 5.46389 14278370
0.0770078 -0.076062 5.45037 2897472
0.0714117 -0.076096 5.44389 8755104
0.0758259 -0.0777562 5.4583 11453390
0.0547102 -0.0729375 5.4008 4212293
0.0895663 -0.0776023 5.45884 10596024
0.0639564 -0.0748026 5.41299 4014400
0.0612636 -0.0755287 5.42325 6518912
0.116682 -0.0750245 5.4212 4078399
0.0820477 -0.0773097 5.44134 5266535
0.0728381 -0.0785077 5.45461 1843758
0.0837809 -0.0808078 5.48015 5660521
0.114047 -0.0779371 5.43925 11846093
0.0956288 -0.0806256 5.4693 13621215
0.0914625 -0.0806534 5.47241 6580850
0.0709964 -0.0790087 5.44017 10531513
0.065642 -0.0785066 5.42906 8821143
0.0597498 -0.0778755 5.41179 9480365
0.0844357 -0.0815497 5.46609 6052443
0.0500551 -0.0786949 5.39667 6966326
0.0974651 -0.0821362 5.46829 14674416
0.0674295 -0.0808734 5.43435 3092527
0.0549638 -0.0795791 5.4061 6583161
0.0943128 -0.0826575 5.46918 14213090
0.121497 -0.0799992 5.41101 12043214
0.0631255 -0.0820653 5.43192 3355444
0.121453 -0.0808346 5.41812 10859449
0.0920909 -0.0840579 5.47606 12240596
0.0899591 -0.0841564 5.46478 5857130
0.123276 -0.0819171 5.40478 8688025
0.0947758 -0.0855001 5.47162 14082017
0.0894713 -0.0854824 5.47185 12175055
0.0862894 -0.085355 5.46562 12439000
0.0827517 -0.0854451 5.46324 13093843
0.108022 -0.0847459 5.44257 12174541
0.0911283 -0.0865536 5.47211 5330273
0.0618626 -0.0861157 5.42595 2960939
0.0882132 -0.0869685 5.47023 8226705
0.081438 -0.0868174 5.46856 10004142
0.123247 -0.0860752 5.40813 7831434
0.110839 -0.086777 5.44488 11977675
0.0710917 -0.0880147 5.45743 12768218
0.0652286 -0.0878252 5.43861 7899527
0.0597108 -0.0875918 5.41909 9480106
0.0809609 -0.088357 5.46167 9148063
0.113378 -0.0883275 5.43841 7832463
0.0686211 -0.0888388 5.44952 3818058
0.0611191 -0.0900474 5.42836 7044994
0.080925 -0.0897736 5.4617 5988970
0.0429598 -0.0914043 5.3732 6186863
0.0902239 -0.0899832 5.46999 2042684
0.112642 -0.0902305 5.44459 10924478
0.0889849 -0.0905394 5.47363 4282480
0.0470759 -0.093233 5.38693 5263694
0.0463665 -0.0931042 5.38766 10597820
0.0863716 -0.0911339 5.46746 10202300
0.0641493 -0.0929087 5.44193 8033442
0.0841729 -0.0924133 5.46852 9148837
0.0423336 -0.096204 5.37369 8358024
0.0624348 -0.0943301 5.43707 2762280
0.0552866 -0.0951921 5.41715 9676456
0.0407888 -0.0969933 5.37778 9412511
0.0431909 -0.0976285 5.38073 4274745
0.0837786 -0.0941249 5.46121 7700617
0.0540078 -0.0970607 5.41385 3814451
0.110009 -0.0946303 5.45233 9543599
0.10564 -0.0947084 5.46159 12898521
0.0842407 -0.0955606 5.46553 10265517
0.0808697 -0.0955578 5.46663 7172474
0.0727782 -0.0961378 5.45505 1843497
0.0638592 -0.0972053 5.44312 5463912
0.0519669 -0.0993866 5.40983 9018260
0.108995 -0.0971223 5.45251 11516353
0.10607 -0.0964144 5.46185 8424347
15685.4 4854.62 63137.2 8877932
0.0952855 -0.0979515 5.4572 2566964
4098.24 1288.95 15585.6 5064777
0.0982629 -0.0972387 5.47205 13688294
4220.73 1450.53 16016.3 8160644
1.48832 0.440712 10.9297 6580331
2806.79 1005.83 10209.9 6314064
23151.6 6686.75 66515 9666408
0.102112 -0.100178 5.46179 6253179
0.0964727 -0.0995175 5.46897 4408911
1971.92 715.585 6982.54 8542015
25095.8 7920.95 73573.3 6773334
8874.13 3489.9 30489.1 12164476
35440.9 12406.8 107729 12689265
16990.8 5253.25 45058.2 6247756
0.0612207 -0.105518 5.43757 7376031
10573.3 4120.18 34346.9 8550765
26021.9 9070.27 75800.5 6048580
24560.9 8990.94 70467 8224382
0.100081 -0.103298 5.46265 3555154
0.103224 -0.103645 5.46314 9019057
10971.4 5010.16 37393.7 7304048
338.029 150.3 1128.08 5787975
0.0596168 -0.109107 5.43477 2893866
9172.87 4049.5 28391.8 5327936
24517.8 9962.56 69645 9476246
15388.4 6105.65 42700 8819341
14494.4 5633.92 39364.4 7371658
2547.71 1315.44 9047.69 6579294
0.110972 -0.106155 5.45757 7964053
0.108738 -0.106343 5.45681 10530748
0.0742143 -0.106574 5.45928 9609382
0.0584973 -0.110838 5.43113 8492448
0.10925 -0.106482 5.459 11121335
15528.1 6737.69 43509.3 8094084
14758.6 6210.42 40114.8 4998719
0.095688 -0.104849 5.47395 12567493
18077.6 8691.46 54998.4 6777189
0.0749159 -0.107988 5.46144 10858425
0.0662053 -0.109938 5.45073 9345697
-0.474856 -0.420031 3.58162 13155507
0.113013 -0.109754 5.44849 9477034
0.050721 -0.118315 5.40367 3486519
-28286.9 14954.2 90408.9 8620677
0.0949195 -0.106458 5.47699 11649490
0.0754309 -0.109786 5.46168 11714503
-28035.7 15483.9 87474.4 7626051
0.0942878 -0.0270647 5.39042 8822962
0.0897195 -0.0278915 5.3929 4995636
0.0902228 -0.0286609 5.38453 7637657
0.0738512 -0.0484544 5.42122 9543337
0.0675427 -0.054462 5.41666 9611436
0.0709186 -0.0627514 5.44094 9021103
0.0837583 -0.0680873 5.4617 12438232
0.0767125 -0.0673434 5.44978 10331823
0.0788042 -0.0698652 5.44679 3752528
0.0904478 -0.0725507 5.46019 4346727
0.0995598 -0.0722824 5.45503 4018274
0.0780099 -0.0765142 5.4498 3160903
0.0553987 -0.073096 5.40949 3291190
0.0839411 -0.0787833 5.46543 5397350
0.0545572 -0.0760006 5.412 3353385
0.0858735 -0.0801833 5.45753 5589320
0.0742837 -0.0799329 5.45382 10069933
0.0654048 -0.0800218 5.43682 8293519
0.0796473 -0.082674 5.46922 12701140
0.0520368 -0.0794477 5.40504 7294005
0.0569687 -0.0812022 5.40992 9089475
0.111022 -0.0847974 5.44846 9937580
0.0849491 -0.0860856 5.4673 11583431
0.0736085 -0.0859947 5.45624 5068123
0.0909047 -0.0871902 5.48109 4014156
0.0832209 -0.0880407 5.4689 9542308
0.077441 -0.0888874 5.45424 4608609
0.0908648 -0.0904663 5.4732 1778739
0.0819855 -0.0911355 5.46984 5528419
0.0859386 -0.0920748 5.46783 9479090
0.0519664 -0.0979513 5.42278 4933960
0.0947641 -0.0974209 5.4683 2827300
0.0626792 -0.0996986 5.44537 3356735
32411.7 11705.3 101854 13739635
23033.2 8932.31 64229.2 6511701
1189.39 588.293 4052.34 5195842
0.0744195 -0.106621 5.46135 7701901
0.11755 -0.110066 5.44107 5989236
0.0857093 -0.0290186 5.40923 6633238
0.0749556 -0.0175585 5.37638 6040855
0.109953 -0.0186606 5.37661 5849659
0.0789671 -0.023188 5.39168 9261608
0.119838 -0.0105587 5.35048 4859160
0.082495 -0.0253522 5.39717 8343081
0.0948017 -0.018569 5.3746 9988166
0.0849729 -0.0275566 5.40214 6830103
0.0791713 -0.0270679 5.39984 2826787
0.0846987 -0.0309387 5.40981 6895384
0.108548 -0.011143 5.34818 7290138
0.0915406 -0.0269337 5.3963 2562068
0.0904163 -0.0272818 5.39779 9196331
0.0940252 -0.0131522 5.35294 2497307
0.0838869 -0.0281906 5.39952 6632474
0.10834 -0.0111567 5.34463 7420954
0.0919225 -0.027552 5.39589 7774137
0.0729144 -0.0213727 5.3781 4793877
0.0968542 -0.0132103 5.35011 1521452
0.0940005 -0.0206482 5.37332 7704482
0.0896907 -0.0284377 5.39757 4927268
0.0916946 -0.0308651 5.40389 8758189
0.118609 -0.0177814 5.35896 3088673
0.105209 -0.0232217 5.37754 7356705
0.0987753 -0.0295343 5.39738 5722192
0.0977163 -0.0272267 5.38986 10599877
0.1174 -0.0114183 5.33432 6764318
0.0946148 -0.0319656 5.40157 1909038
0.088514 -0.0333285 5.40657 8684680
0.0986876 -0.028378 5.388 3882311
0.103198 -0.0262628 5.37901 10596790
0.108261 -0.023071 5.36694 14145224
0.0969581 -0.037434 5.41544 3090993
0.0791344 -0.0337504 5.40318 6436122
0.103736 -0.029784 5.38799 9348274
0.113631 -0.00589083 5.30519 11183269
0.0969457 -0.0341201 5.40166 3818323
0.0734502 -0.0292501 5.38738 6897185
0.105713 -0.0291306 5.38166 2958891
0.0981953 -0.0389703 5.41558 12834273
0.118856 -0.0150643 5.32988 6043944
0.10189 -0.0330998 5.39516 9678271
0.10535 -0.0297888 5.38119 3617598
0.0907843 -0.0362662 5.40416 13687265
0.120445 -0.015822 5.32897 4204574
0.112325 -0.019119 5.34059 3949398
0.105138 -0.0374099 5.40259 12243679
0.0834272 -0.040292 5.41328 11978710
0.129334 0.0018397 5.25686 8674121
0.0814802 -0.0401688 5.41089 11845067
-0.41446 -1.80648 11.8845 11321293
0.117445 -0.0306832 5.36991 5914937
0.0907456 -0.0449891 5.42352 10859718
0.114363 -0.0379304 5.39337 8554121
0.0868887 -0.048098 5.43147 12240078
0.0918246 -0.0476383 5.42872 13818851
0.0803008 -0.0474302 5.42809 11911882
0.121836 -0.0304794 5.35947 10523788
0.117344 -0.0348693 5.37712 9085359
0.0867872 -0.046753 5.42348 12437459
0.109453 -0.0427047 5.40547 9743034
0.116828 -0.0350215 5.3747 10134194
0.107726 -0.0432106 5.40694 9937589
0.111112 -0.041717 5.39977 12175573
0.0822396 -0.0467708 5.42056 10462899
0.122685 -0.0300793 5.35078 10202813
0.093359 -0.0502372 5.43249 13489627
0.0894 -0.0519541 5.4401 9740207
0.0774559 -0.0515056 5.43761 9808315
0.118132 -0.0385652 5.38186 7373464
0.0919444 -0.0497356 5.42854 10068909
0.122363 -0.0335319 5.35881 6252921
0.0961531 -0.0537114 5.4421 10991038
0.104597 -0.048883 5.42095 10266804
0.0755425 -0.0473016 5.41359 10859976
0.103668 -0.0515162 5.42758 10792123
0.102749 -0.0521147 5.42899 13292765
0.0949938 -0.0527069 5.43159 14278886
0.0937719 -0.0550092 5.44143 14212580
0.120432 -0.0388203 5.36896 11254473
0.0835877 -0.0546174 5.4389 12897236
0.0732759 -0.0508748 5.42349 6251889
0.0717401 -0.0498282 5.41905 10336192
0.0821913 -0.0553852 5.43963 9279908
0.0814037 -0.0549437 5.43614 8554907
0.0715498 -0.0511222 5.42113 4275524
0.0701698 -0.050545 5.41792 10592675
0.120925 -0.0427548 5.38086 9873074
0.072131 -0.0512793 5.42043 6713723
0.108439 -0.0523092 5.41972 11057866
0.103089 -0.0551212 5.43284 13292766
0.101306 -0.0562002 5.43773 10791605
0.0887417 -0.0573242 5.4432 14081254
0.12845 -0.0366463 5.34537 11184560
0.113859 -0.0497886 5.40728 8686238
0.0817095 -0.057882 5.44453 11910859
0.114636 -0.0455185 5.38465 12371410
0.0895099 -0.0581856 5.44408 9476519
0.0825228 -0.0582523 5.44411 9016739
0.127763 -0.0376991 5.34382 9803932
0.0926769 -0.0578442 5.44034 10200244
0.110622 -0.0526674 5.41323 10793151
0.0701238 -0.0537561 5.42164 7041910
0.119202 -0.0486412 5.392 7767188
0.130127 -0.0390244 5.34342 13423320
0.101679 -0.0579522 5.43655 13949665
0.0822872 -0.0600308 5.44709 12832216
0.100135 -0.0586223 5.43846 10791343
0.0751246 -0.0576772 5.43526 10991552
0.0723443 -0.0562881 5.42859 7832464
0.0969893 -0.0619065 5.45215 11912141
0.0864229 -0.0615265 5.45168 13488606
0.082969 -0.0596675 5.4434 8358297
0.100312 -0.057925 5.43082 14608107
0.0783103 -0.0588947 5.4369 10462900
0.131749 -0.0410605 5.34193 11514813
0.102229 -0.0596928 5.43715 11778498
0.109736 -0.0579997 5.42685 9148840
0.0968528 -0.0614377 5.44568 13883871
0.0715413 -0.0579189 5.42947 7570320
0.137384 -0.0364223 5.3129 12437200
0.127041 -0.0461743 5.36373 7172740
0.118003 -0.0524438 5.39644 6910082
0.0946668 -0.061836 5.44639 10201273
0.112859 -0.0555838 5.41113 9807027
0.0844997 -0.0632637 5.45125 10727616
0.0873584 -0.06439 5.45745 12831442
0.139205 -0.0374129 5.30834 12764103
0.0803539 -0.0631582 5.44972 11977162
0.0781807 -0.0631881 5.44962 8620698
0.0813248 -0.0629839 5.44694 10923190
0.126921 -0.0479423 5.3618 11122887
0.112073 -0.0590352 5.42356 12964314
0.108967 -0.0602273 5.43024 13030364
0.107119 -0.06091 5.43385 10069681
0.0936129 -0.0631072 5.44529 14212325
0.103698 -0.0611879 5.43303 9806509
0.080915 -0.0634175 5.44647 12699599
0.12156 -0.0521824 5.38189 6911367
0.0990915 -0.0625972 5.43899 9082788
0.0845583 -0.064816 5.4505 11713732
0.126802 -0.0521092 5.3742 7832725
0.0885263 -0.0659729 5.45614 6253953
0.0838303 -0.0654069 5.45165 13884643
0.0816638 -0.0642776 5.44519 8688028
0.0577271 -0.0516723 5.37543 4534310
0.0967779 -0.0648043 5.44636 10201013
0.0938752 -0.0659978 5.45336 10596796
0.0907987 -0.0662513 5.45485 14411245
0.122401 -0.054663 5.38601 5725033
0.108185 -0.0645305 5.44075 13358554
0.0889428 -0.0662606 5.45193 13490917
0.105915 -0.0649863 5.44135 9215914
0.0870426 -0.0673925 5.45668 14213866
0.0825028 -0.0667659 5.45126 11253188
0.091056 -0.067296 5.45366 13489885
0.100608 -0.0681189 5.45716 13423834
0.10287 -0.0671457 5.44946 13159891
0.0863535 -0.0696715 5.46288 12043985
0.0924324 -0.0681155 5.45392 10332598
0.112943 -0.0644143 5.42721 8162972
0.123431 -0.0586193 5.38819 5793141
0.107772 -0.0665479 5.43951 7304835
0.0916084 -0.0685672 5.45285 14015973
70.9873 55.9425 -369.353 9594445
0.077132 -0.0673986 5.44371 8359321
0.116203 -0.064149 5.42059 9410211
0.107473 -0.06718 5.43974 5593185
0.0870419 -0.0700692 5.46021 9544369
0.0828685 -0.0697587 5.45829 5594732
6.46072 4.58218 -26.3534 10517863
0.135389 -0.0516079 5.33134 6514036
0.0998715 -0.069014 5.4498 11451327
0.0752915 -0.0687827 5.45059 10332852
0.0814395 -0.0709588 5.46098 8884633
0.112019 -0.0662159 5.42549 7964820
0.0892626 -0.0710135 5.46027 7566720
0.0850665 -0.0704444 5.45631 7108485
0.136578 -0.053355 5.33001 12044501
0.110676 -0.0683492 5.43851 6187897
0.0833137 -0.071748 5.46286 8884898
0.139346 -0.0538236 5.3281 13292248
0.104326 -0.0687994 5.44071 9806249
0.0890212 -0.0714819 5.46017 5857133
0.0849954 -0.0718442 5.46278 9016227
0.113572 -0.0672002 5.42664 10399417
0.0748744 -0.0702958 5.45042 11386057
0.0977703 -0.0713464 5.4549 14411244
0.0801389 -0.0709576 5.45296 10663099
0.134901 -0.0585679 5.35514 12042954
0.118216 -0.0650038 5.40165 8094867
0.0909192 -0.0711175 5.45337 4476509
0.0852904 -0.069415 5.43776 2503756
0.0939334 -0.0728906 5.46372 13358557
0.114591 -0.0687002 5.42814 11119801
0.0854462 -0.0729106 5.4619 1977412
0.117778 -0.0676258 5.41844 10926022
0.0786004 -0.0727945 5.45807 9150383
0.11197 -0.0706899 5.43719 8818587
0.11096 -0.070369 5.43409 5069160
0.086426 -0.0734365 5.46018 3691117
0.0764843 -0.0727979 5.45593 5594731
0.125002 -0.0652848 5.38952 7043211
0.136408 -0.0619678 5.35518 5458250
0.0964632 -0.0756379 5.4677 11977678
0.0743564 -0.0737603 5.45088 9082526
0.143423 -0.0604543 5.31948 6176050
0.0812875 -0.0749043 5.4595 4019303
0.0552356 -0.0675122 5.39326 8888487
0.111217 -0.0727035 5.4349 8885150
0.105733 -0.0739801 5.4444 5988970
0.0971686 -0.0762522 5.4672 13490917
0.0789437 -0.0756913 5.46075 4739162
0.0499822 -0.0652313 5.36114 4345688
0.090846 -0.0746792 5.45054 8554639
0.0493989 -0.0658427 5.36279 4739671
0.115133 -0.0724632 5.42427 4803930
0.109118 -0.0735816 5.43516 4541270
0.104166 -0.0739281 5.44058 3551537
0.0949352 -0.0769371 5.46886 12240077
0.0916498 -0.0758794 5.4593 11187131
0.0845008 -0.0760903 5.46167 1844271
0.0559556 -0.0700594 5.39995 3882302
0.100003 -0.0750582 5.4456 11055802
0.0959386 -0.0774782 5.46882 13293278
0.118391 -0.0724286 5.41245 6316142
0.136267 -0.0675402 5.35616 5919832
0.10592 -0.0751194 5.43969 6513509
0.0932636 -0.0771579 5.46344 11516868
0.0899577 -0.0772958 5.4635 9542568
0.0819891 -0.0770136 5.462 4870489
0.136844 -0.0669582 5.34699 9938355
0.11523 -0.0742903 5.42842 13097442
0.0976941 -0.0778521 5.46456 9807023
0.0571228 -0.071868 5.40396 8822180
0.0974489 -0.0779617 5.46629 10135474
0.106786 -0.0756261 5.43678 12108998
0.1346 -0.0699402 5.36511 9083820
0.115352 -0.0749388 5.4229 3288628
0.0965637 -0.0784855 5.46575 12371920
0.0930845 -0.0785482 5.46757 11386059
0.0737363 -0.077418 5.45492 5925234
0.105999 -0.0784656 5.4649 5655888
0.0921 -0.0783077 5.46187 8621467
0.136591 -0.0694223 5.34106 6516864
0.0935575 -0.0800024 5.47758 11845067
0.086245 -0.0790624 5.46499 5067100
0.127084 -0.0729918 5.38169 7962769
0.0739939 -0.0785494 5.45581 3882046
0.138753 -0.0703714 5.3417 11057088
0.115493 -0.076394 5.42192 12833758
0.102105 -0.0778735 5.4427 12570330
0.07467 -0.0788265 5.45704 8754846
0.100275 -0.0794143 5.45692 9477804
0.0943033 -0.0804319 5.47169 11911371
0.0920435 -0.0805613 5.47229 8489367
0.0875404 -0.0794092 5.45708 4471359
0.0803209 -0.0792862 5.45631 3814716
0.111883 -0.0779572 5.43358 14082279
0.0973124 -0.0801301 5.46458 11779785
0.115409 -0.0781993 5.43298 10529467
0.0716834 -0.0795097 5.44952 9217203
126.571 40.9358 -637.492 5724002
0.12843 -0.0752637 5.37842 7569040
0.101326 -0.0799772 5.45698 13622757
0.0720533 -0.0806702 5.45358 10531000
0.105489 -0.0805549 5.44793 11977164
0.109418 -0.0803807 5.44056 14805744
0.0939722 -0.0821943 5.47461 12305872
0.0899943 -0.081942 5.46725 11516869
0.0782177 -0.0816645 5.45906 9215663
0.116926 -0.0803765 5.43304 11912140
0.101803 -0.0815522 5.4563 13754601
0.0994221 -0.0822492 5.4691 13819364
0.0962276 -0.0827694 5.48029 12699858
0.129194 -0.0777736 5.37839 5922926
0.102839 -0.0816343 5.45266 14411760
0.086866 -0.082144 5.462 9938354
0.0823904 -0.0823784 5.46637 12371407
0.121824 -0.079938 5.40977 12306128
0.10306 -0.0820093 5.45597 14279660
0.0847953 -0.0821013 5.45974 12635347
0.0766901 -0.082139 5.46168 12570072
0.0739836 -0.0820613 5.45409 11253696
0.136526 -0.0776445 5.36034 10856369
0.0906753 -0.0834769 5.47729 8095899
0.0983281 -0.0835679 5.47412 9674930
0.0842885 -0.0828698 5.46072 8029071
0.0563476 -0.0808109 5.411 2831937
0.122746 -0.081477 5.42073 8096923
0.114797 -0.0823068 5.43928 9542566
0.11277 -0.0821436 5.43808 13029590
0.1002 -0.0831874 5.46307 7371660
0.0808386 -0.0832267 5.46217 8292241
0.0780529 -0.0827425 5.45497 11254468
0.0983485 -0.0837696 5.46863 12766171
0.0943949 -0.0843418 5.48458 11515327
0.072786 -0.0833406 5.45395 9412005
0.0701291 -0.0830622 5.44956 9545903
0.14211 -0.0788773 5.33153 6574930
0.0938153 -0.0845414 5.48469 10988727
0.0786764 -0.0837607 5.46305 8029333
0.111354 -0.0834227 5.44684 10134966
0.0934301 -0.0847365 5.48474 10397874
0.0896426 -0.0845101 5.47736 6250859
0.104568 -0.0838516 5.45563 14477806
0.091209 -0.0848289 5.48121 10858946
0.0865832 -0.0848035 5.47897 11318466
0.129654 -0.0823734 5.39056 7177622
0.118896 -0.0832231 5.42759 8028298
0.120048 -0.082973 5.41851 8291728
0.11097 -0.0837492 5.4438 9610164
0.109378 -0.0835742 5.43865 14147819
0.101955 -0.0843831 5.46161 8885921
0.083549 -0.084671 5.47097 9148834
0.113373 -0.0838786 5.43776 11582666
0.099376 -0.0846992 5.46311 13555938
0.0491167 -0.0822924 5.38231 2367524
0.121257 -0.0836949 5.41973 8818067
0.114972 -0.08418 5.43815 8357529
0.108308 -0.0841264 5.43832 12832214
0.0824304 -0.0848268 5.45994 11648455
0.0857357 -0.0852278 5.46567 9409432
0.130189 -0.0837977 5.38965 5398126
0.100804 -0.0853168 5.46134 10792893
0.085446 -0.0855666 5.46863 9673633
0.115992 -0.0851035 5.43698 9606301
0.0805183 -0.0855683 5.46176 8555930
0.116765 -0.0852232 5.4378 8423056
0.0742596 -0.0858382 5.45963 7305603
0.11137 -0.0855565 5.43758 12371662
0.099373 -0.0860348 5.45629 10332598
0.0890234 -0.0863413 5.47689 11385285
0.0773227 -0.0860478 5.46349 6188415
0.125031 -0.0852126 5.40914 8819099
0.0938387 -0.0866719 5.48787 13489625
0.0925297 -0.0866962 5.48831 12305875
0.0876613 -0.0864319 5.47075 9674916
0.0710099 -0.0862863 5.45558 11055279
0.104605 -0.0861079 5.45554 10794174
0.0986099 -0.0865684 5.47316 8754084
0.0956262 -0.0869137 5.47408 10988974
0.079013 -0.0867588 5.46117 8621979
0.0713022 -0.0868826 5.45405 3685446
0.0901831 -0.0873116 5.47897 6186353
0.088609 -0.0871623 5.47676 10263974
0.105425 -0.0870027 5.45531 8752796
0.0996337 -0.0870706 5.46127 7897745
0.0954704 -0.0874071 5.49088 11843514
0.0823717 -0.0871763 5.46026 10199465
0.0766961 -0.0872875 5.46409 4410973
0.116972 -0.0871152 5.43265 10989238
0.0951731 -0.0875589 5.48712 12040376
0.0938533 -0.0875801 5.48751 12239305
0.084136 -0.0874197 5.46575 10464436
0.0788774 -0.0874821 5.4644 7371140
0.104687 -0.0877426 5.45535 7042953
0.0957168 -0.0877967 5.47226 8029064
0.0812814 -0.0880163 5.46773 9936551
0.0927339 -0.0881445 5.48767 5201006
0.0892299 -0.0880849 5.48118 3094858
0.0833771 -0.0882892 5.46966 7371139
0.0802418 -0.0881696 5.46504 6317934
0.0946989 -0.0883988 5.47874 8950945
0.100476 -0.0887207 5.46914 2436928
0.0421581 -0.0897158 5.3622 7435128
0.104411 -0.0887975 5.45482 9018285
0.0796631 -0.0890828 5.46613 7699849
0.12823 -0.0895022 5.40341 6847113
0.113897 -0.0893356 5.4438 9343388
0.0713016 -0.0896606 5.4569 7767177
0.0414382 -0.0905703 5.36488 7964821
0.117628 -0.0896357 5.43541 10790579
0.101982 -0.0894245 5.46525 11254988
0.0788023 -0.0895421 5.46676 4542044
0.0895788 -0.0895391 5.47202 2306889
0.084759 -0.089665 5.46771 4673371
0.0826092 -0.0897185 5.46673 6844799
0.117042 -0.0903635 5.43394 8029331
0.108008 -0.0901051 5.45344 12635095
0.0953788 -0.0898048 5.47712 4413294
0.113218 -0.0904074 5.44304 11779527
0.080374 -0.0902316 5.46439 8094347
0.137653 -0.0916502 5.37097 4676199
0.101729 -0.0901698 5.46003 3883343
0.0962457 -0.090312 5.47624 3425366
0.114161 -0.0909184 5.43851 11713991
0.0791166 -0.091 5.4651 8555152
0.118873 -0.0915916 5.43306 10199461
0.0983507 -0.0911295 5.47071 2500919
0.0823834 -0.0913749 5.46644 5726826
0.0793785 -0.0913632 5.4653 7831431
0.116238 -0.0920235 5.43705 6185840
0.100342 -0.0913222 5.4702 5131091
0.131168 -0.0943499 5.38249 8355715
0.11927 -0.0926982 5.43399 8687257
0.144027 -0.0958296 5.34467 11518150
0.0955089 -0.0920176 5.47113 2566714
0.145528 -0.0962008 5.34588 8877422
0.119499 -0.0934383 5.43275 7173244
0.113719 -0.0930027 5.44203 12371921
0.144717 -0.0970551 5.34151 10926274
0.116328 -0.093552 5.44185 7634057
0.104475 -0.0929674 5.45847 9608879
0.086394 -0.0927414 5.4704 12436938
0.0821566 -0.0932627 5.46612 5922147
0.0400133 -0.0975803 5.36567 9016976
0.139357 -0.0972323 5.36482 6386049
0.106091 -0.0934532 5.45691 8360100
0.0965191 -0.0923186 5.4884 3946301
0.136099 -0.0968099 5.38386 9346469
0.0379926 -0.098342 5.37334 10521211
0.11772 -0.0949891 5.43387 9740460
0.102696 -0.0937101 5.4619 9150386
0.101536 -0.0934881 5.46901 11846869
0.129894 -0.0967632 5.3984 7307412
0.110518 -0.0945177 5.45033 8161948
0.108817 -0.0943336 5.45564 9543602
0.106117 -0.094139 5.45804 10925767
0.0533896 -0.0972379 5.40457 9940148
0.0385851 -0.0989964 5.37222 6448753
0.139665 -0.0989262 5.36335 5662839
0.114505 -0.095216 5.44423 10135477
0.107151 -0.0943519 5.46009 12766421
0.0850571 -0.0941087 5.46775 7633540
0.0493934 -0.0979382 5.39886 7634042
0.044417 -0.0988522 5.38154 6448740
0.0382148 -0.0993228 5.37412 7630442
0.139775 -0.0986164 5.37182 12171702
0.114484 -0.0956659 5.44169 11188421
0.0955481 -0.0941866 5.47257 5065810
0.0907324 -0.0942642 5.47254 5590607
0.0547157 -0.0977701 5.41731 5662058
0.114269 -0.0955934 5.4484 8028562
0.0832966 -0.09476 5.46855 5922919
0.0411433 -0.100308 5.37539 7569278
0.11121 -0.0957912 5.44908 12767193
0.104019 -0.0945961 5.47305 12240857
0.100478 -0.0948246 5.46857 12305618
0.107663 -0.0954319 5.46151 10134707
0.141147 -0.10142 5.36214 10991551
0.106756 -0.0956874 5.46137 10069169
0.0805223 -0.0959262 5.46056 7763841
0.0935782 -0.0947511 5.48056 4342866
0.0978414 -0.0953845 5.47401 4014675
0.10998 -0.0970517 5.44999 10332337
0.107348 -0.096952 5.45271 7503760
0.0932314 -0.0954869 5.4758 5398127
0.111794 -0.097453 5.4469 11121595
0.0970961 -0.095957 5.47187 5005428
0.0908712 -0.0956488 5.47679 4871526
0.106822 -0.0973561 5.45403 10529723
0.103252 -0.0965486 5.46482 11123661
0.0975504 -0.0948061 5.49084 4149608
0.0947047 -0.0949688 5.48815 3555154
0.0429372 -0.103461 5.38172 9411741
0.113652 -0.098089 5.44631 8490657
0.0924919 -0.0984698 5.44469 3687259
0.11002 -0.0979396 5.45447 7239816
0.101137 -0.0967775 5.47235 5136245
0.137425 -0.104646 5.37594 9810118
0.098536 -0.0970865 5.47309 14937328
0.114616 -0.0993842 5.44472 8292507
0.106218 -0.0987619 5.45498 5398644
0.062915 -0.100608 5.43798 5661548
0.106228 -0.0985534 5.45994 6187129
0.12228 -0.102345 5.41676 9806515
2.72561e+06 642212 6.99194e+06 8416866
0.142309 -0.107603 5.35674 4478574
0.107345 -0.0988883 5.46098 6844536
0.104977 -0.0987508 5.46136 9478836
1.98652e+06 480905 5.1925e+06 7035987
0.128158 -0.104161 5.40405 3951454
0.120805 -0.101763 5.42857 10134450
0.12047 -0.102325 5.42726 7305094
0.0983436 -0.098256 5.47409 9806518
0.0864278 -0.0985912 5.47235 4081495
1.34715e+06 361980 3.73634e+06 10653556
2.74371e+06 691377 7.08585e+06 9342345
0.113329 -0.100188 5.45306 8225682
2.63839e+06 707461 7.14824e+06 9606802
2.4068e+06 618246 6.27996e+06 9673112
0.0872666 -0.0997063 5.46742 4477536
2.49069e+06 637742 6.33477e+06 7827556
0.124159 -0.104475 5.41506 8490912
0.111702 -0.100768 5.45247 11715025
0.101451 -0.0991624 5.47124 7438223
0.0966594 -0.0987025 5.47419 10398392
0.133219 -0.106883 5.39069 4809337
0.104264 -0.0993387 5.47088 11846354
0.102499 -0.0987157 5.47651 12306134
0.0795377 -0.100423 5.46303 4277840
2.88061e+06 756441 7.14959e+06 7427141
0.0930284 -0.0987835 5.4791 5722714
2.32407e+06 643138 5.99229e+06 6377290
3.42793e+06 935287 8.7043e+06 8948614
0.122031 -0.104079 5.42668 9477038
0.115803 -0.102902 5.43673 10463671
0.112609 -0.101769 5.44977 11056581
0.0981573 -0.0985659 5.48191 3492969
0.0886176 -0.0998046 5.47262 4740453
2.24148e+06 659075 6.06161e+06 9144966
2.31392e+06 658055 6.02941e+06 6445912
0.118218 -0.103512 5.43555 9937844
0.0975705 -0.0993772 5.47705 3753058
0.0908124 -0.0991462 5.4799 3883600
2.34275e+06 672024 6.04319e+06 6312263
0.121832 -0.104717 5.42617 6644853
0.116057 -0.103006 5.4405 10266036
0.0955984 -0.100102 5.4726 5202298
0.122407 -0.104987 5.42623 9674676
0.102958 -0.0997526 5.47602 11254734
2.89056e+06 988298 8.72549e+06 7561817
2.05956e+06 620820 5.45358e+06 5984075
2.95961e+06 841691 7.28121e+06 7958113
0.112568 -0.102537 5.45164 7171708
0.106679 -0.101241 5.46455 11450564
0.115197 -0.103059 5.45077 9740212
0.112165 -0.102963 5.45321 12041412
1.2428e+06 478780 4.03575e+06 7433847
1.99451e+06 607221 5.00763e+06 8486267
1.85117e+06 546721 4.5331e+06 9729630
4.67806e+06 1.32351e+06 1.09296e+07 8087117
0.107153 -0.102364 5.46069 8754850
1.54199e+06 539961 4.47495e+06 5588289
2.41891e+06 760286 6.18412e+06 5917509
4.81464e+06 1.36668e+06 1.10926e+07 10455402
0.113483 -0.103736 5.45058 8685979
1.75103e+06 566682 4.58047e+06 8950937
2.45695e+06 773806 6.18782e+06 8353645
0.122355 -0.106883 5.42493 10729155
0.110304 -0.103604 5.45332 7503249
0.0973725 -0.101654 5.47138 4938355
0.0864552 -0.101636 5.47215 3749696
0.119174 -0.107167 5.42448 8883352
0.110289 -0.103314 5.45768 10267063
0.0928612 -0.101193 5.47783 4741488
292365 124340 993645 7434858
3.24141e+06 1.02087e+06 7.96457e+06 6180933
0.12261 -0.107773 5.42361 11650255
2.46859e+06 974243 7.57772e+06 7763825
3.96108e+06 1.23532e+06 9.47283e+06 12032374
1.89008e+06 721406 5.54181e+06 8095367
0.12168 -0.108217 5.42378 7436423
1.37203e+06 559810 4.21886e+06 8158586
1.7947e+06 626997 4.70008e+06 6515825
2.21212e+06 763525 5.71968e+06 5591122
0.123155 -0.108414 5.42519 6254719
2.81296e+06 934377 6.86746e+06 6641480
0.102565 -0.103475 5.46698 10991299
0.0869552 -0.102475 5.47604 3619659
0.130256 -0.112057 5.40016 4148062
0.0858053 -0.103373 5.47182 4211276
0.121087 -0.108495 5.43199 13096154
0.121097 -0.108929 5.42982 11978709
0.116236 -0.107137 5.44264 8621984
0.108905 -0.104466 5.46306 11383483
0.101871 -0.104805 5.46283 12701917
928457 449211 3.1757e+06 4798259
1.34573e+06 614228 4.32789e+06 5196355
2.50516e+06 934553 6.48684e+06 7368824
4.91447e+06 1.66591e+06 1.15578e+07 8615008
0.112407 -0.105662 5.45624 6318203
4.31873e+06 1.45687e+06 9.95802e+06 5063220
0.112913 -0.106736 5.44939 9541542
0.097684 -0.103386 5.47532 3551804
0.0862469 -0.104018 5.47171 5199976
0.109177 -0.105171 5.46273 7106942
0.0998695 -0.104345 5.46958 14016489
2.49149e+06 986204 6.59224e+06 7107963
0.127588 -0.112428 5.41189 6191256
0.104403 -0.105026 5.46699 13030114
0.101326 -0.103242 5.4784 14016489
1.79243e+06 826341 5.50958e+06 5196614
0.105934 -0.105588 5.46415 11846869
15720.6 -8263.26 -57388.5 3024429
0.120464 -0.110162 5.4337 4545395
0.106833 -0.105638 5.46389 8161953
0.08279 -0.105531 5.46769 6317166
-475455 241519 1.65489e+06 10001815
18122 -9407.06 -64470.5 5331292
0.125317 -0.112063 5.4219 10601947
0.121574 -0.110434 5.43234 2436678
0.110931 -0.106861 5.45703 7174023
1.92019e+06 782022 4.99023e+06 5856096
0.125693 -0.11204 5.42292 3951970
0.0955075 -0.104697 5.47497 12237757
2.05373e+06 886069 5.57071e+06 5259844
12918 -7000.44 -46849.9 6188152
0.124667 -0.112491 5.42211 4149604
0.114885 -0.108728 5.4481 4607836
0.0967261 -0.105063 5.47369 13622246
0.110786 -0.107742 5.45646 10069682
0.105325 -0.106207 5.46667 10530237
5.1641e+06 1.98656e+06 1.2161e+07 9670271
16412.9 -8741.12 -57228.8 3354416
14381.8 -7765.2 -50801.7 9808560
0.129118 -0.117197 5.3955 6714251
0.104603 -0.108276 5.45523 10662336
0.0999774 -0.105467 5.47319 9609136
309247 163787 1.00565e+06 5129282
3.80035e+06 1.44907e+06 8.8037e+06 10390384
-520358 293257 1.88446e+06 6056563
0.0945154 -0.104188 5.48404 13488858
-506927 260856 1.66528e+06 11184030
0.120207 -0.11242 5.43059 3028297
0.111386 -0.108571 5.45506 7897749
0.107424 -0.106494 5.46792 9018027
0.108287 -0.108706 5.45481 10069177
0.0966573 -0.106052 5.47241 9674930
-60507.7 32381.6 204678 4803662
0.109282 -0.107626 5.46195 8029846
0.088353 -0.107137 5.46816 5788763
3806.7 -2246.93 -13995.9 7900573
0.102877 -0.105545 5.47767 9873338
0.0846865 -0.107061 5.47061 5988718
33681.9 -19689.9 -120142 2762540
0.120836 -0.112773 5.43517 3620175
0.117061 -0.113127 5.43527 7898776
0.10751 -0.106667 5.47252 10069942
0.104807 -0.106761 5.47245 11517643
0.105597 -0.108158 5.46421 9017001
0.112443 -0.110744 5.44916 7437456
0.107337 -0.108427 5.46352 6844290
0.104545 -0.108111 5.46646 10662858
0.102704 -0.106179 5.47741 7900836
0.101083 -0.106199 5.47759 10858690
0.119997 -0.112926 5.438 11127773
0.117882 -0.113167 5.43625 5003372
0.112778 -0.110265 5.45388 8753827
0.101159 -0.10563 5.48198 11452367
0.065189 -0.108487 5.46944 6974835
-548256 294355 1.7359e+06 8611664
34948.3 -20041.8 -118529 4937050
33783.7 -19753.8 -117439 5266791
0.11835 -0.112486 5.44112 6323867
0.118414 -0.11341 5.43633 8426924
0.116662 -0.113723 5.43587 5595507
0.11465 -0.112692 5.4405 8360097
0.107369 -0.108756 5.46407 11452365
0.0990923 -0.106788 5.47738 12833502
0.0968989 -0.106762 5.4764 13030880
0.117724 -0.113549 5.43711 4804961
0.104922 -0.108089 5.46959 7965084
0.102753 -0.108334 5.46868 9281457
0.0867258 -0.107495 5.47441 5987686
0.12049 -0.113672 5.43828 2043718
0.118419 -0.113959 5.4363 5071738
0.106905 -0.109252 5.46416 7899031
0.103406 -0.107823 5.47251 7241880
10715.3 -6160.25 -35358.9 5989483
34357.1 -20853.8 -119449 7967651
0.124365 -0.115397 5.42962 9284023
0.105825 -0.107322 5.47648 9807028
0.123118 -0.115878 5.42875 10008007
0.105522 -0.108296 5.47175 11320521
0.105699 -0.109246 5.46661 11846351
0.100452 -0.106804 5.48131 9938102
0.0974989 -0.10797 5.47437 9280427
35505.3 -21009.8 -118162 8623778
28700 -18125.2 -102106 7440278
0.0978568 -0.106684 5.48241 11977937
0.0844527 -0.11023 5.46426 4407638
0.103018 -0.108683 5.47225 10992589
0.101927 -0.107715 5.47715 7965599
0.101151 -0.107892 5.47687 8424348
0.0993853 -0.107343 5.47917 10793667
0.0990735 -0.107723 5.47761 11320781
0.0963206 -0.107019 5.48238 7833497
33580.9 -21675 -119070 8690603
0.0955264 -0.107045 5.48288 11252936
32220 -21751.9 -118119 6255490
0.134612 -0.123588 5.39252 2635075
0.102801 -0.108299 5.4765 11058123
0.0934133 -0.106563 5.48724 8491683
31494.6 -21782.6 -117053 4346717
0.0984673 -0.107498 5.48195 6911884
33306.6 -22145.9 -118120 2762542
0.101799 -0.108741 5.47642 11386574
29565.3 -21438.1 -111828 2236708
30765.1 -22165.1 -113599 4676458
39150.6 -25656 -112698 3551032
38325.9 -25699.6 -111500 9874093
0.111658 -0.0186758 5.37455 2697255
0.092802 -0.0246177 5.39105 2958885
0.0787529 -0.0211199 5.38244 2563874
0.0974136 -0.012782 5.34656 1852473
0.0933522 -0.0251532 5.38686 8033959
0.103271 -0.0124713 5.34228 7227703
-232.85 -645.437 2320.61 7899286
0.0801354 -0.0488242 5.42306 12896465
0.070964 -0.047405 5.41205 4475218
0.095028 -0.0528564 5.4303 14344164
0.0705448 -0.0520655 5.42079 6122877
0.0858873 -0.0608586 5.45161 8819108
0.0678765 -0.050883 5.40565 3225145
0.103283 -0.0613568 5.44303 14475746
0.0964167 -0.0634938 5.45139 7502471
0.0721948 -0.0584184 5.426 6912140
0.0659303 -0.0547713 5.4069 2568242
0.101892 -0.0628609 5.44205 10201778
0.107272 -0.0632829 5.44151 13818850
0.104502 -0.0633083 5.44169 14738148
0.0519979 -0.0442586 5.33756 3418408
0.112037 -0.062686 5.4286 6516865
0.103999 -0.0662877 5.44946 7504266
0.0868773 -0.065971 5.44798 14607595
0.10729 -0.0660768 5.44134 12766677
0.0830515 -0.068626 5.45994 11189450
0.0793303 -0.0682432 5.45417 12504527
0.125955 -0.0576118 5.37789 6845830
0.0491517 -0.0520803 5.33763 8493744
0.0778775 -0.0703805 5.4549 10990267
0.107686 -0.0693734 5.43778 5526884
0.0929607 -0.0719155 5.4571 14344938
0.0829892 -0.0735237 5.46486 2372428
0.0751519 -0.0720854 5.45233 11781068
0.0686962 -0.0688299 5.42709 10663100
0.106119 -0.0714814 5.43658 2830131
0.0515393 -0.0654805 5.38608 5984843
0.105609 -0.0725483 5.43598 5264217
0.112449 -0.0730584 5.43575 2634820
0.0528931 -0.0682656 5.39225 9083806
0.106251 -0.0736065 5.43527 2632239
0.082539 -0.0760831 5.45805 5791331
0.0754647 -0.0755246 5.45564 5923947
0.0745521 -0.0761106 5.45647 4605775
0.113698 -0.0746676 5.43492 13293281
0.0864492 -0.0764915 5.45609 5462626
0.0944692 -0.0778392 5.46607 14344938
0.088051 -0.0781392 5.45804 4079167
0.11287 -0.0779144 5.43269 13555937
0.0875572 -0.0795702 5.45763 4734787
0.0769971 -0.0799329 5.46183 4999754
0.0509177 -0.0745538 5.38192 9085608
0.0531485 -0.0760254 5.40371 3353127
0.103506 -0.0796596 5.44972 10333885
0.0944348 -0.0814338 5.47618 15002095
0.0652158 -0.0781731 5.42407 7240055
0.055733 -0.0774196 5.39104 6385266
0.0501561 -0.0769376 5.38195 9742516
0.11038 -0.0820725 5.44824 11912138
0.0733057 -0.0834609 5.45394 9150118
0.0724441 -0.0850616 5.45931 5197904
0.125433 -0.0840626 5.40756 10332080
0.0697466 -0.0856893 5.45025 11781580
0.0970729 -0.0866153 5.46764 13159632
0.0436308 -0.0853616 5.36114 12090960
0.0999988 -0.0874915 5.46867 5200230
0.0980193 -0.0875148 5.47242 8620695
0.0960589 -0.0879913 5.48222 6777199
0.0921044 -0.0878778 5.48204 7634058
0.0651168 -0.0878433 5.43763 7241086
0.0590245 -0.0878493 5.41695 9547451
0.0474502 -0.089188 5.38333 4996149
0.0638425 -0.0897659 5.43376 2566446
0.107877 -0.0898922 5.45735 12306384
0.0823978 -0.0903453 5.46002 9015963
0.042193 -0.0920881 5.36211 9147287
0.104838 -0.0906175 5.45844 9148840
0.0755624 -0.0908301 5.46052 3884112
0.0868194 -0.0911344 5.46709 10267318
0.0497037 -0.0939337 5.39395 4075563
0.102061 -0.0921129 5.45773 5196116
0.122289 -0.093379 5.42498 7631990
0.114618 -0.0932233 5.4409 11647944
0.0428237 -0.0988238 5.38672 5264735
0.10316 -0.0947064 5.46166 12965346
0.0650352 -0.0962104 5.44031 8097430
0.100816 -0.0959859 5.46634 6516610
0.0851006 -0.096061 5.46798 10069421
0.056741 -0.0994983 5.41444 3090478
0.0561762 -0.0989198 5.42512 5857635
0.103325 -0.0974641 5.4616 4083558
0.0504507 -0.103158 5.4069 8358804
0.139771 -0.105921 5.375 12699073
0.0628475 -0.101348 5.44034 3617588
3.28377e+06 792490 8.45493e+06 8024941
0.0894111 -0.0978309 5.48078 2236968
2.9606e+06 895793 8.61391e+06 7104358
3.45878e+06 914134 8.64828e+06 7035727
0.102352 -0.100515 5.46752 5005691
0.0967591 -0.0999994 5.477 5333886
2.18834e+06 640641 5.5052e+06 8421500
0.102114 -0.101622 5.46514 4146264
1.60929e+06 607330 5.11366e+06 13215362
3.26369e+06 948364 7.85742e+06 13149046
3.66878e+06 1.17425e+06 9.10424e+06 6905943
1.35609e+06 548215 4.1942e+06 7829107
0.0567214 -0.109398 5.42342 6385790
0.10649 -0.104732 5.46243 6450819
1.46367e+06 680942 4.77039e+06 5130562
3.25154e+06 1.27992e+06 7.99877e+06 10985610
0.127773 -0.115976 5.40937 3885918
6151.61 -3545.41 -21877.5 3420471
0.121363 -0.113244 5.43046 3226453
0.107903 -0.107602 5.46657 10070456
0.0949195 -0.106458 5.47699 11649490
0.0963107 -0.107264 5.48257 8624043
0.104947 -0.0244645 5.37598 12697011
0.117934 -0.0190868 5.34572 2959142
0.121684 -0.0303552 5.35985 9935000
0.0978508 -0.0452902 5.41195 8886182
0.124756 -0.0249553 5.32225 10661310
0.0927292 -0.0586133 5.4483 9804970
0.0699142 -0.0499556 5.40483 10596028
0.134024 -0.0335992 5.31452 12766421
0.0644405 -0.049444 5.39561 8360354
0.0994875 -0.0639677 5.44239 8555934
0.0951035 -0.0682451 5.44162 14937330
0.10822 -0.0700129 5.44612 4213593
0.0780155 -0.0737364 5.46169 9082792
0.105582 -0.0764772 5.44785 7896962
0.101434 -0.0779277 5.46489 4803151
0.0912863 -0.0790328 5.46415 7041400
0.115159 -0.0784716 5.43274 12108236
0.083756 -0.0809644 5.45554 5987164
0.117822 -0.0800244 5.42343 11780301
0.0894683 -0.0844408 5.46606 4937314
0.0941373 -0.0873999 5.47856 11056829
0.103987 -0.0916058 5.45772 11253961
0.0822725 -0.0916997 5.46773 5725797
0.101183 -0.0945493 5.45666 12109528
0.0530955 -0.0978321 5.40311 7701386
0.0855609 -0.0949736 5.48413 8422541
0.100773 -0.0966733 5.47759 3227739
0.0902042 -0.0974464 5.48054 2238258
4.94922e+06 1.30267e+06 1.27924e+07 8156529
0.0878342 -0.098991 5.48116 3617595
0.0910179 -0.0999047 5.47915 4872046
2.48692e+06 708571 6.01553e+06 13345907
0.0676088 -0.110614 5.44822 6449006
0.0934784 -0.0286658 5.397 8626097
0.119812 -0.0133885 5.35009 7818028
0.08342 -0.0325526 5.40704 7027227
0.0958783 -0.0311635 5.3992 8234170
0.0880456 -0.0321845 5.39989 3028539
0.099974 -0.0328394 5.40127 8691887
0.0818112 -0.036926 5.41112 6896668
0.112509 -0.0266419 5.37838 8345404
0.0921761 -0.0403615 5.42017 12573154
0.113729 -0.0285857 5.3809 3483684
0.107219 -0.0257378 5.36939 2434091
0.0821089 -0.0245003 5.36311 6502689
0.119001 -0.0105648 5.31632 6109488
0.101361 -0.0403781 5.41675 12372949
0.0921316 -0.0419917 5.42138 13228255
0.079787 -0.0316033 5.38385 7094563
0.111788 -0.0306203 5.381 7368302
0.0872907 -0.0449282 5.42868 10926535
0.099183 -0.0436039 5.42288 11255241
0.0847836 -0.0443631 5.42596 12043983
0.0920467 -0.0451683 5.4237 13227485
0.110929 -0.0373463 5.3941 12372951
0.0892421 -0.0465123 5.42509 13687521
0.104311 -0.0458965 5.42169 8888244
0.0922079 -0.0495352 5.43483 13621212
0.110678 -0.0410897 5.40086 12373465
0.102444 -0.0468943 5.4218 10726840
0.073757 -0.0432332 5.40509 9077382
0.0870824 -0.049018 5.42751 9149100
0.117553 -0.038872 5.38647 9610678
0.0867369 -0.0525878 5.43824 12701144
0.0826772 -0.0566595 5.45305 11845062
0.0725958 -0.0454 5.40811 11190472
0.105378 -0.0515447 5.43479 10990530
0.0850536 -0.0534036 5.43954 9542828
0.0957681 -0.052975 5.43719 10466752
0.0988188 -0.0533261 5.4376 11516867
0.0945943 -0.0547698 5.44161 11714247
0.0864735 -0.0527941 5.43055 12898008
0.120854 -0.0392128 5.37467 6911103
0.117648 -0.0422533 5.38742 10794693
0.0805376 -0.05622 5.44067 12108495
0.112261 -0.0483073 5.40866 9280690
0.082402 -0.0548285 5.43399 11845323
0.0763818 -0.0491185 5.40806 9478574
0.0956238 -0.0560369 5.43935 11517383
0.0661037 -0.0448496 5.38629 5791839
0.0911353 -0.0572391 5.44071 10661559
0.086901 -0.0586066 5.44602 12437457
0.0863676 -0.0586734 5.44629 13358557
0.0751774 -0.0590531 5.44677 7572887
0.083296 -0.0567921 5.43502 12175572
0.113912 -0.0518984 5.41275 8030620
0.102624 -0.0543914 5.42367 12042697
0.0982517 -0.0583141 5.44095 13752020
0.0783538 -0.0587629 5.43993 11977159
0.0740109 -0.0522103 5.40712 8096662
0.0663952 -0.0511222 5.40063 9349297
0.0976541 -0.0592844 5.44158 14015711
0.073092 -0.0528918 5.40868 10925242
0.0617894 -0.0464015 5.3758 3879468
0.123154 -0.0470318 5.38254 12307668
0.0664825 -0.0519964 5.4014 8032925
0.0645186 -0.0532911 5.4059 7436418
0.113919 -0.0542814 5.41466 8030106
0.0618384 -0.0506698 5.39003 9208699
0.0886242 -0.0582266 5.43025 12634319
0.0740699 -0.0597477 5.43546 7899546
0.0713858 -0.0550854 5.4127 8888234
0.0735737 -0.0602367 5.43645 6385794
0.0649662 -0.0523278 5.39668 2961453
0.0741137 -0.0604248 5.43598 10201523
0.0699686 -0.057899 5.42276 9284532
0.0600045 -0.050464 5.38399 4272171
0.118339 -0.0537192 5.40447 8491682
0.11501 -0.0549578 5.41232 7306634
0.0823711 -0.0633956 5.45044 10068655
0.0718933 -0.0617743 5.43988 7308691
0.0616806 -0.0511439 5.38151 5198677
0.0703625 -0.0592866 5.42349 10597054
0.0671482 -0.0557085 5.40416 8628923
0.104262 -0.0628621 5.44492 11319750
0.0759915 -0.0644863 5.45027 7701649
0.123272 -0.0535105 5.39327 10396847
0.0729769 -0.0627792 5.43933 6452871
0.0706208 -0.0612234 5.42986 10203064
0.0682968 -0.0593611 5.4212 6060425
0.116569 -0.0546771 5.39915 12439002
0.0769718 -0.061052 5.42936 9937062
0.0647588 -0.0579482 5.41054 5725273
0.106856 -0.0632841 5.44373 12900062
0.105793 -0.0579854 5.41276 8622748
0.0828211 -0.0658536 5.45335 8624037
0.118746 -0.0574302 5.40775 10202039
0.0928517 -0.0646453 5.44677 12370894
0.0791736 -0.0647267 5.4455 13095378
0.0713861 -0.0645765 5.44305 5463918
0.0823387 -0.0665065 5.45416 12636378
0.111018 -0.062525 5.43346 13359073
0.0553172 -0.0506111 5.35716 8421499
0.126354 -0.0536109 5.38234 10136241
0.0855304 -0.0673879 5.45678 8752285
0.0616279 -0.0560759 5.38729 4803142
0.119041 -0.0580925 5.40464 5264741
0.0741209 -0.0641607 5.43511 9807536
0.070653 -0.0628738 5.42629 8887981
0.124279 -0.0564526 5.39213 10662072
0.110907 -0.0635119 5.43413 4545132
0.0808979 -0.0701838 5.46943 9215396
0.122805 -0.0576169 5.39569 10202296
0.0780788 -0.0672797 5.45009 8358805
0.0744272 -0.0647631 5.43528 10333625
0.0886941 -0.0701695 5.46862 14608621
0.0887786 -0.0668501 5.44833 14804711
0.0833816 -0.0728723 5.48353 11911886
0.0612653 -0.0581212 5.39042 5528663
0.0547996 -0.0537573 5.36288 3484458
0.131262 -0.0530857 5.36625 10257783
0.0810755 -0.070401 5.46735 10661813
0.0714343 -0.062999 5.42045 10268602
0.124337 -0.0575406 5.38844 7240073
0.0716366 -0.0676626 5.44533 8689834
0.0583788 -0.0559506 5.3676 5331286
0.056194 -0.054613 5.36017 8030597
0.059052 -0.0605786 5.39874 8494513
0.0816842 -0.0697001 5.45691 8425628
0.0783763 -0.0676563 5.44412 9215396
0.129769 -0.0564777 5.37314 12108742
0.115164 -0.0641602 5.42355 9016479
0.0612954 -0.0608394 5.39345 4673866
0.124618 -0.059395 5.3907 9939125
0.0716321 -0.0681164 5.44205 6780805
0.0694087 -0.0667565 5.43172 9482173
0.0547442 -0.0575877 5.36834 3094588
0.0743626 -0.0669741 5.43363 7240580
0.0733775 -0.06831 5.43975 9610668
0.0689444 -0.068454 5.43839 4144442
0.0906622 -0.0702876 5.45446 10661300
0.0810114 -0.0711649 5.4585 3687237
0.0522615 -0.0607527 5.3815 9868680
0.081641 -0.0695792 5.44559 10727604
0.0547523 -0.0596702 5.37119 8691358
0.0534871 -0.0604344 5.37653 3025705
0.116878 -0.0637128 5.40732 9609643
0.107433 -0.0696243 5.44839 8754079
0.0553571 -0.0598464 5.36952 6318955
0.0723217 -0.0705127 5.44659 7044231
0.0608438 -0.0640994 5.39827 2961197
0.129749 -0.0602729 5.37698 12175306
0.0616821 -0.0641783 5.39625 8492429
0.0539402 -0.0616699 5.37674 10665416
0.0792212 -0.0727795 5.46134 11256264
0.125618 -0.062652 5.39135 8885667
0.0988529 -0.0712572 5.45243 4344922
0.0716346 -0.0709349 5.44466 11191243
0.111932 -0.0696897 5.43937 4542045
0.0762242 -0.0738386 5.46555 11386309
0.0658143 -0.0674867 5.41265 4870736
0.0560124 -0.0625344 5.371 9478814
0.0600976 -0.0660435 5.39489 8095362
0.0506127 -0.0651925 5.38175 5323311
0.0970369 -0.0740549 5.46219 12899289
0.120402 -0.0674228 5.41149 6846088
0.0694432 -0.0709922 5.43131 8098973
0.0620409 -0.0674013 5.39883 5066312
0.130261 -0.0636329 5.37662 11058119
0.0563119 -0.0648372 5.37299 8622736
0.0547706 -0.0655893 5.37927 7373191
0.124558 -0.0666122 5.39794 7438991
0.0921921 -0.0746859 5.46199 10662589
0.0886932 -0.0764759 5.47517 2831679
0.0925161 -0.0750599 5.46085 13555165
0.115244 -0.0713283 5.42944 3292232
0.0914586 -0.0754815 5.46271 8619404
0.0604891 -0.068912 5.39761 3552814
0.0607472 -0.0698956 5.40505 8951185
0.0604048 -0.0717753 5.41478 5925740
0.0535616 -0.0690054 5.3889 3292221
0.105823 -0.073866 5.44003 2500911
0.103322 -0.0736642 5.44021 5461593
0.0459132 -0.0666141 5.36082 5393220
0.122971 -0.069761 5.4021 7700622
0.12568 -0.069441 5.39936 9872555
0.108476 -0.0735769 5.4357 5331554
0.0961337 -0.076539 5.46228 13884903
0.0713125 -0.0752739 5.44617 7701387
0.0535386 -0.070351 5.39099 8363425
0.0529503 -0.0706756 5.3942 7636100
0.124228 -0.0701761 5.40115 10858683
0.07962 -0.0772974 5.46404 4344145
0.0623145 -0.0724981 5.40336 3157802
