# .PCD v0.7 - Point Cloud Data file format
VERSION 0.7
FIELDS x y z rgba
SIZE 4 4 4 4
TYPE F F F U
COUNT 1 1 1 1
WIDTH 1305
HEIGHT 1
VIEWPOINT 0 0 0 1 0 0 0
POINTS 1305
DATA ascii
-0.208336 -0.0697441 5.24203 12767192
-0.179727 -0.066579 5.29487 4212555
-0.178338 -0.0666066 5.2948 7833486
-0.229164 -0.0710274 5.22244 11845058
-0.224259 -0.0705559 5.22846 11188160
-0.223445 -0.0704237 5.2307 11516610
-0.222054 -0.0702777 5.23345 11386826
-0.183118 -0.0664732 5.28968 8035509
-0.239821 -0.0688761 5.25318 11319748
-0.23558 -0.0696026 5.24068 14015972
-0.23403 -0.0699964 5.23549 10398907
-0.23287 -0.0701345 5.23347 11122628
-0.23113 -0.0706933 5.22762 11911374
-0.230535 -0.0704475 5.22488 11318979
-0.226121 -0.0706322 5.2245 8227485
-0.224581 -0.0703298 5.23012 8490396
-0.218612 -0.0705143 5.22397 12569041
-0.220346 -0.0703145 5.22535 11187644
-0.206075 -0.068179 5.25054 11450819
-0.172967 -0.0643127 5.30645 8487804
-0.239411 -0.0684681 5.24942 11516355
-0.238417 -0.0688368 5.24425 12831186
-0.236429 -0.0693534 5.23927 11781069
-0.232355 -0.0699662 5.22902 6780293
-0.228127 -0.0701951 5.22277 12107461
-0.227479 -0.0702802 5.2238 13752802
-0.22144 -0.0694683 5.23614 9872818
-0.220073 -0.0698163 5.22947 9214378
-0.216918 -0.0692226 5.23941 10135213
-0.214913 -0.069146 5.23834 9542048
-0.212386 -0.0688409 5.23875 12042443
-0.201157 -0.0677626 5.25496 7831948
-0.185335 -0.0657692 5.28638 9348010
-0.183153 -0.0654941 5.28963 2701906
-0.244702 -0.0677099 5.2639 8358552
-0.243268 -0.0676233 5.26123 10134443
-0.233506 -0.0695355 5.23297 13096928
-0.229297 -0.069738 5.22918 12239820
-0.225538 -0.0697545 5.22549 10923965
-0.217772 -0.0690591 5.23751 8620954
-0.216991 -0.0693198 5.23359 11187907
-0.213739 -0.0688943 5.23888 9477546
-0.212386 -0.0688409 5.23875 12042443
-0.211136 -0.0686706 5.24083 9148583
-0.206301 -0.0681061 5.25015 11976906
-0.176837 -0.0644044 5.29953 6584449
-0.171267 -0.0631838 5.30695 6045487
-0.235191 -0.0691349 5.23921 11713994
-0.227574 -0.0694301 5.22116 8359069
-0.231177 -0.0697407 5.22424 13884647
-0.24282 -0.0669214 5.26526 8621205
-0.236768 -0.0685061 5.24094 11121858
-0.232515 -0.0691535 5.23413 5267058
-0.226419 -0.0691052 5.22995 11910860
-0.222377 -0.0691827 5.23025 12108491
-0.219133 -0.0685489 5.23807 7964827
-0.216901 -0.0688479 5.23291 7699849
-0.214634 -0.0686498 5.23663 8555414
-0.20935 -0.0681687 5.24105 10661819
-0.203108 -0.067514 5.25126 8030096
-0.235851 -0.0684625 5.23889 14148068
-0.233204 -0.0699781 5.21931 9016993
-0.227853 -0.0695456 5.22189 9148586
-0.221292 -0.068691 5.23433 12043468
-0.216901 -0.0688479 5.23291 7699849
-0.213344 -0.0683719 5.23746 11385283
-0.208413 -0.0674626 5.25023 12174030
-0.210182 -0.0682674 5.239 7899808
-0.207547 -0.0678693 5.24172 8095890
-0.184961 -0.0646184 5.28655 3948352
-0.0711555 -0.0376055 5.61778 11323087
-0.182099 -0.0634509 5.2912 9086903
2.2885 2.46975 36.2779 11516614
-0.224684 -0.0687162 5.23078 9082534
-0.217607 -0.0685213 5.23215 9542309
-0.217607 -0.0685212 5.23215 9542309
-0.201783 -0.0665041 5.25618 8687510
-0.24504 -0.0666162 5.25471 11645102
-0.243512 -0.0667225 5.25737 9541018
-0.238376 -0.0682356 5.23668 12174030
-0.238376 -0.0682356 5.23668 12174030
-0.236972 -0.0675556 5.24093 13687269
-0.234796 -0.0682879 5.23665 14148329
-0.231611 -0.0687671 5.2289 13950180
-0.229237 -0.0688663 5.22368 14804966
-0.224098 -0.0686103 5.22727 10660788
-0.222682 -0.0687459 5.22974 10465210
-0.21423 -0.0678685 5.23836 8095382
-0.211675 -0.0675767 5.23843 7502991
-0.211212 -0.0678782 5.23846 12437203
-0.181907 -0.0630598 5.2883 8430005
-0.233939 -0.0675703 5.24152 11122627
-0.230621 -0.07153 5.19063 12700114
-0.226562 -0.0688167 5.22517 8753058
-0.218745 -0.0680264 5.23485 8620433
-0.214795 -0.0680891 5.23207 8884641
-0.208001 -0.067092 5.24585 10464441
-0.205055 -0.0666323 5.24923 9412006
-0.201788 -0.0660465 5.25525 6712178
-0.190179 -0.0644803 5.27354 2893864
-0.224098 -0.0686103 5.22727 10660788
-0.221047 -0.0677696 5.23169 12108746
-0.208759 -0.0668897 5.24509 10924224
-0.202424 -0.0659912 5.24823 12043981
-0.237931 -0.0669105 5.24398 9082275
-0.235907 -0.0675739 5.23879 10990523
-0.233315 -0.0671916 5.23913 10924735
-0.231558 -0.0668834 5.24436 10596028
-0.227454 -0.0686517 5.22191 11846098
-0.22187 -0.06797 5.23159 4871004
-0.180398 -0.0625544 5.29211 8692921
-0.237058 -0.0671081 5.24059 9412013
-0.233268 -0.0682006 5.22857 11385544
-0.232476 -0.0672017 5.23449 12240593
-0.231335 -0.0688473 5.22084 14409959
-0.229745 -0.0682178 5.22624 14344161
-0.228479 -0.0680356 5.22709 11581115
-0.221047 -0.0677696 5.23169 12108746
-0.212473 -0.0664026 5.24262 10463927
-0.211118 -0.0668822 5.2379 6582146
-0.242074 -0.066125 5.25324 9015707
-0.228479 -0.0680356 5.22709 11581115
-0.228479 -0.0680356 5.22709 11581115
-0.227749 -0.0685534 5.22155 12438231
-0.226344 -0.0681221 5.22371 5923701
-0.217814 -0.0666006 5.23947 9476769
-0.21585 -0.0670341 5.23764 11713735
-0.239168 -0.0669941 5.23837 12371151
-0.236139 -0.0670206 5.23636 9149097
-0.231888 -0.0674493 5.23134 10924478
-0.225039 -0.0680971 5.22489 11713736
-0.22028 -0.0672412 5.23333 12570585
-0.215692 -0.0663868 5.24131 13620699
-0.214224 -0.0661402 5.23704 10792893
-0.213843 -0.0667824 5.23366 8885152
-0.207364 -0.0655481 5.2478 8029843
-0.997377 -0.401413 2.02844 6384510
-0.205822 -0.0649945 5.2485 7239812
-0.237768 -0.0668113 5.23784 9148067
-0.23427 -0.067243 5.23454 7831948
-0.232796 -0.0668439 5.23581 9016740
-0.230707 -0.0671231 5.23197 12107206
-0.221933 -0.0671874 5.23139 12438480
-0.212756 -0.0662063 5.24114 10858944
-0.242343 -0.0656193 5.24898 7699079
-0.240413 -0.0654135 5.24489 9872303
-0.239638 -0.065904 5.24454 9082274
-0.23834 -0.0664378 5.23823 10594224
-0.234479 -0.0663638 5.23591 8095635
-0.233638 -0.0681119 5.21487 8096153
-0.232497 -0.0677636 5.2246 8754084
-0.230926 -0.0684832 5.21685 14146782
-0.229765 -0.0684801 5.21673 12831694
-0.223282 -0.0671317 5.22676 7436932
-0.219762 -0.0664574 5.23606 8688032
-0.219762 -0.0664574 5.23606 8688032
-0.218264 -0.0667439 5.23315 9410461
-0.18197 -0.0609368 5.28935 10535124
-0.234479 -0.0663638 5.23591 8095635
-0.231228 -0.0678617 5.22146 12436166
-0.227605 -0.0677961 5.22296 11714251
-0.225916 -0.0674923 5.22335 4343120
-0.224202 -0.0672006 5.2266 8425120
-0.219277 -0.0665258 5.2333 12899036
-0.214224 -0.0661402 5.23704 10792893
-0.212872 -0.0659644 5.23826 10923448
-0.205822 -0.0649945 5.2485 7239812
-0.192065 -0.0626103 5.26765 2894377
-0.237542 -0.0662336 5.23779 12832473
-0.235332 -0.0661163 5.23519 8556447
-0.233638 -0.0681119 5.21487 8096153
-0.230474 -0.0680972 5.21713 10265509
-0.226828 -0.0676547 5.22212 8094612
-0.224202 -0.0672006 5.2266 8425120
-0.220204 -0.0664535 5.23182 5595242
-0.219168 -0.0667331 5.23042 12042697
-0.219168 -0.0667331 5.23042 12042697
-0.209679 -0.0649986 5.2422 5858422
-0.242144 -0.0644397 5.25427 10857396
-0.239566 -0.0650917 5.24537 11121856
-0.233619 -0.0656912 5.23642 8556188
-0.21255 -0.0655908 5.23682 6845052
-0.238233 -0.0653507 5.24132 8885408
-0.234841 -0.0664912 5.23123 5135980
-0.22438 -0.0664295 5.22866 6054255
-0.224213 -0.0669158 5.22507 6120820
-0.215536 -0.0655076 5.23487 10332080
-0.213579 -0.0653617 5.23752 10858425
-0.212622 -0.0651591 5.23579 6450043
-0.209679 -0.0649986 5.2422 5858422
-0.205233 -0.0636446 5.25037 5001819
-0.240921 -0.0641692 5.24896 10463155
-0.236916 -0.0654595 5.23793 8819109
-0.233619 -0.0656912 5.23642 8556188
-0.233116 -0.0657519 5.2355 6713987
-0.231891 -0.0662201 5.22453 6187897
-0.228567 -0.0673252 5.21874 10200499
-0.22633 -0.0667822 5.22563 3752014
-0.220179 -0.0657232 5.23307 3292750
-0.217782 -0.0651345 5.23559 10464436
-0.215536 -0.0655076 5.23487 10332080
-0.237925 -0.0652646 5.23878 9016229
-0.242061 -0.0636915 5.24865 10858431
-0.240258 -0.0644063 5.24291 7502213
-0.237323 -0.0649603 5.23885 12306901
-0.236536 -0.0649941 5.2382 10858690
-0.236133 -0.0648748 5.23955 11451080
-0.230641 -0.0670926 5.21954 8685964
-0.228736 -0.0670971 5.21861 6120563
-0.222717 -0.0651292 5.23222 4213594
-0.219036 -0.0653727 5.23338 6054767
-0.217782 -0.0651345 5.23559 10464436
-0.216087 -0.0651502 5.23506 7568262
-0.239798 -0.064546 5.24132 7831182
-0.238635 -0.064788 5.24055 11122113
-0.235202 -0.0653623 5.23362 9939128
-0.234367 -0.0649173 5.23727 4213595
-0.230879 -0.0655272 5.2286 5594732
-0.230641 -0.0670926 5.21954 8685964
-0.227754 -0.0666856 5.22066 9080990
-0.21447 -0.0651165 5.23203 6647415
-0.175778 -0.0486594 5.35687 7898251
-0.199628 -0.0627288 5.25357 5726050
-0.229901 -0.0661658 5.22401 9673633
-0.219502 -0.0650315 5.23197 11451328
-0.210499 -0.0641138 5.23857 6648195
-0.202981 -0.0632135 5.24918 3553347
-0.240452 -0.0637054 5.24482 12698056
-0.236837 -0.064021 5.23942 11385030
-0.235857 -0.0645262 5.23864 8030362
-0.235134 -0.0648093 5.23448 9084078
-0.222073 -0.0653446 5.22589 3225412
-0.215046 -0.0643622 5.23548 10067880
-0.211953 -0.0632743 5.23991 4410458
-0.206397 -0.0631254 5.24425 5331039
-0.243289 -0.0616296 5.26025 10462385
-0.235691 -0.0643609 5.23686 11516876
-0.226285 -0.0653887 5.22755 3685452
-0.226285 -0.0653887 5.22755 3685452
-0.217347 -0.0641846 5.23422 8292756
-0.216315 -0.0641561 5.23558 11120828
-0.202336 -0.0622918 5.24893 12308183
-0.18708 -0.0584336 5.27812 9613241
-0.230625 -0.0657117 5.22519 7436671
-0.218897 -0.0643027 5.23241 9477546
-0.208896 -0.0632611 5.24186 4871266
-0.232033 -0.0646481 5.22727 2764863
-0.219386 -0.0642413 5.23215 5990777
-0.217628 -0.0635378 5.23249 6844798
-0.215498 -0.0636453 5.23547 10133161
-0.214588 -0.0635687 5.23664 8554127
-0.211953 -0.0632743 5.23991 4410458
-0.226184 -0.0649213 5.2247 4742002
-0.209397 -0.0626474 5.24148 3293009
-0.240487 -0.0631365 5.23848 11582920
-0.239576 -0.0633754 5.23699 12896721
-0.238099 -0.0633725 5.23903 12175056
-0.236489 -0.0637903 5.23531 7570063
-0.234145 -0.0640791 5.23332 12307160
-0.216383 -0.0632273 5.23496 6384504
-0.202478 -0.0614028 5.24932 11582913
-0.239576 -0.0633754 5.23699 12896721
-0.237153 -0.0624342 5.24324 9345706
-0.232033 -0.0646481 5.22727 2764863
-0.224337 -0.0644249 5.22705 2108998
-0.21833 -0.063345 5.23358 9278621
-0.212901 -0.0629432 5.23659 7239298
-0.241578 -0.0620157 5.24679 8686999
-0.232946 -0.0638548 5.22981 4083814
-0.228113 -0.0651572 5.2195 5203584
-0.222701 -0.063939 5.2279 4411749
-0.168594 -0.0524599 5.31397 4471348
-0.158995 -0.0490162 5.33251 8225679
-0.23703 -0.0627406 5.23712 13292766
-0.236203 -0.0628665 5.23755 8950175
-0.23549 -0.0633208 5.23475 8621986
-0.234479 -0.0635787 5.2315 12108235
-0.210952 -0.061717 5.23857 4211793
-0.240291 -0.0617796 5.24295 8293019
-0.239637 -0.0618239 5.24436 10266550
-0.234718 -0.0616156 5.23932 10727875
-0.219411 -0.0627839 5.23399 9278882
-0.215894 -0.0624935 5.23553 9343900
-0.211538 -0.0607579 5.24645 7567234
-0.211515 -0.0616286 5.24129 4936542
-0.186943 -0.0561384 5.2786 7043709
-0.246739 -0.0566718 5.28313 8882573
-0.239025 -0.061826 5.24208 12108748
-0.229712 -0.0635767 5.22816 2173758
-0.228882 -0.0644524 5.22051 2834004
-0.224671 -0.0637988 5.22837 1844533
-0.217225 -0.0626487 5.23324 9015964
-0.217225 -0.0626487 5.23324 9015964
-0.211538 -0.0607579 5.24645 7567234
-0.242391 -0.060942 5.24819 6053998
-0.241572 -0.0610467 5.24601 10726587
-0.237883 -0.0622743 5.23826 8161687
-0.237197 -0.0618325 5.23964 13160923
-0.235555 -0.0625463 5.23521 13226715
-0.228882 -0.0644524 5.22051 2834004
-0.218915 -0.0620323 5.23675 10793150
-0.218915 -0.0620323 5.23675 10793150
0.271933 0.176047 6.98991 5595239
-0.212453 -0.0617587 5.23634 7699335
-0.240254 -0.0623789 5.23549 10070199
-0.238614 -0.0619056 5.23857 11649227
-0.236636 -0.0622006 5.23485 12700889
-0.234032 -0.0625822 5.23168 6710641
-0.222216 -0.063118 5.22653 8490392
-0.216051 -0.0622163 5.23362 5265247
-0.171013 -0.0501415 5.3052 4868940
-0.168376 -0.0506695 5.309 4934993
-0.237477 -0.0620328 5.2365 12898779
-0.234718 -0.0616156 5.23932 10727875
-0.223494 -0.0626077 5.2309 3690086
-0.222216 -0.063118 5.22653 8490392
-0.21843 -0.0621932 5.23212 4804959
-0.211017 -0.0611143 5.2394 6976640
-0.235188 -0.0620438 5.23318 12438489
-0.229325 -0.0628243 5.22895 3557984
-0.219864 -0.0617702 5.23173 10201018
-0.245793 -0.0576713 5.26768 7566972
-0.241196 -0.0612613 5.23991 11648457
-0.238983 -0.0619699 5.23462 9477548
-0.234165 -0.0624541 5.23197 8882838
-0.218013 -0.0615864 5.23337 5857134
-0.216362 -0.0615551 5.23326 5396317
-0.192129 -0.056406 5.26815 7438987
-0.241913 -0.0604151 5.24432 11647944
-0.236176 -0.0619289 5.23169 12306133
-0.220515 -0.0614223 5.23341 12109521
-0.219618 -0.0612508 5.23274 10728386
-0.218533 -0.0614385 5.23317 6450556
-0.211243 -0.0600521 5.23993 4212564
-0.16516 -0.0476183 5.31695 10729149
-0.164062 -0.0480297 5.31711 6577248
-0.238983 -0.0619699 5.23462 9477548
-0.237762 -0.0611189 5.23744 9739687
-0.23405 -0.061804 5.23192 11779789
-0.224727 -0.0621854 5.22839 2368817
-0.214634 -0.0605065 5.23737 8028040
-0.244548 -0.057594 5.26031 10069164
-0.230924 -0.0620862 5.22868 4737103
-0.230367 -0.0621272 5.22718 2501173
-0.237333 -0.0609538 5.23526 7700624
-0.233725 -0.0613826 5.23126 8488856
-0.214034 -0.0607612 5.23415 5988462
-0.191875 -0.0547467 5.26695 8426658
-0.172642 -0.0487099 5.30327 3878441
-0.170905 -0.0499664 5.30542 5461332
-0.242544 -0.0574595 5.25592 9608875
-0.240404 -0.0596623 5.2425 8161949
-0.2363 -0.0605974 5.23646 10267840
-0.23542 -0.0612878 5.23228 10991559
-0.219824 -0.0604726 5.23213 10530488
-0.241255 -0.0595602 5.24245 10793152
-0.233466 -0.061282 5.23006 5789794
-0.219824 -0.0604726 5.23213 10530488
-0.217468 -0.0603851 5.23317 8947858
-0.215956 -0.060231 5.23356 5527906
-0.214955 -0.0601161 5.23356 5397095
-0.211682 -0.059264 5.23901 5923439
-0.233741 -0.0599958 5.23629 10662085
-0.226208 -0.0613857 5.22718 4868946
-0.219014 -0.059309 5.23776 11319746
-0.217598 -0.059854 5.2357 8819360
-0.195848 -0.0553194 5.25949 6712688
-0.236549 -0.0604892 5.23303 11056071
-0.23569 -0.060454 5.23353 8425636
-0.234447 -0.0603524 5.23367 10794183
-0.232605 -0.0607635 5.23098 3945530
-0.22015 -0.0601633 5.23201 11320262
-0.218747 -0.0604865 5.23231 10069685
-0.217572 -0.0599282 5.23346 8093835
-0.177353 -0.0493247 5.29299 9477531
-0.165443 -0.0463253 5.31166 7499887
-0.250284 -0.0552675 5.27587 11055548
-0.232764 -0.0609213 5.22729 11316397
-0.224861 -0.0609343 5.22744 5132372
-0.216818 -0.0595103 5.23382 6580334
-0.166645 -0.0459176 5.31167 7435638
-0.243808 -0.0572807 5.25159 7830919
-0.239203 -0.0592688 5.23906 9410989
-0.237014 -0.0601512 5.23281 12832219
-0.219948 -0.0598213 5.2302 8620692
-0.194317 -0.0547372 5.25813 4278348
-0.194317 -0.0547372 5.25813 4278348
-0.17823 -0.0476178 5.29658 4077108
-0.170323 -0.0458191 5.30749 7437180
-0.238493 -0.0592863 5.2369 12832728
-0.227047 -0.0606436 5.22699 3288885
-0.215165 -0.0583247 5.23794 8554641
-0.244067 -0.056946 5.24988 9213860
-0.236725 -0.059709 5.23323 13160670
-0.235957 -0.0595157 5.23408 9412020
-0.228488 -0.0611016 5.22246 4079175
-0.220387 -0.0594462 5.23206 11056317
-0.196531 -0.0543466 5.25572 8358805
-0.185582 -0.0502003 5.27929 8424071
-0.241054 -0.0588718 5.23818 9543604
-0.237408 -0.0592525 5.23503 13161184
-0.234328 -0.0599344 5.22978 13095906
-0.228619 -0.0607737 5.22227 4079433
-0.188479 -0.0423124 5.31523 5463401
-0.171776 -0.044571 5.30828 7108475
-0.241759 -0.0574443 5.24538 8226715
-0.235209 -0.0596799 5.23047 8885930
-0.233357 -0.0596042 5.23015 10660275
-0.23264 -0.0600616 5.22808 11846353
-0.227493 -0.0601938 5.22639 5264220
-0.219433 -0.0590165 5.23177 10661302
-0.215879 -0.0576839 5.23712 5857646
-0.19591 -0.053209 5.25924 7897992
-0.196721 -0.0541443 5.25497 8622237
-0.193014 -0.0528055 5.26177 3623253
-0.171945 -0.0442472 5.30831 6713716
-0.218319 -0.0587756 5.23216 7436932
-0.204337 -0.0549001 5.24887 3291199
-0.167297 -0.0430691 5.31286 6645604
-0.244509 -0.055771 5.25136 10727101
-0.24184 -0.0568971 5.24532 8490400
-0.235791 -0.0599453 5.22557 11451597
-0.21464 -0.0578255 5.23547 4343634
-0.189323 -0.0508684 5.2687 4738898
-0.234189 -0.0591573 5.23023 7241107
-0.23227 -0.0597787 5.22705 9804193
-0.227126 -0.0594342 5.22733 3027004
-0.217307 -0.0579982 5.23349 9212310
-0.216692 -0.0579737 5.2332 6777719
-0.204693 -0.0552912 5.24648 4477532
-0.195987 -0.0536312 5.25709 9412524
-0.165592 -0.0419548 5.31392 7305847
-0.252605 -0.0472971 5.29756 11252666
-0.238764 -0.0544274 5.25609 9015967
-0.237499 -0.0574668 5.23866 7437455
-0.235791 -0.0599453 5.22557 11451597
-0.233448 -0.0592638 5.22851 9411753
-0.220029 -0.0578859 5.23231 9805221
-0.220029 -0.0578859 5.23231 9805221
-0.214677 -0.0573055 5.23539 7238010
-0.17907 -0.0468025 5.28764 5529962
-3.16522 -2.1166 -4.99522 6647151
-0.240736 -0.0573728 5.23909 11846090
-0.240076 -0.0576851 5.23697 9344931
-0.233809 -0.0590795 5.22854 6252925
-0.229226 -0.0594075 5.22583 5201005
-0.216309 -0.0575614 5.23328 5395809
-0.214889 -0.0572075 5.23541 6777973
-0.205686 -0.0544519 5.24399 3686475
-0.183401 -0.0479658 5.27957 4342343
-0.236232 -0.0566948 5.24003 7174027
-0.235228 -0.0601759 5.22246 10268095
-0.233279 -0.0588716 5.22846 4542050
-0.231577 -0.0588604 5.22784 4741486
-0.188479 -0.0423124 5.31523 5463401
-0.234077 -0.0583686 5.22962 6845828
-0.227982 -0.0590701 5.2221 3226960
-0.220768 -0.0576822 5.22975 9410206
-0.175114 -0.0441241 5.2943 8886422
-0.157734 -0.0372144 5.32589 7959146
-0.236472 -0.0583825 5.22941 6187645
-0.233683 -0.0585315 5.22835 7305609
-0.219965 -0.0577218 5.22949 10529459
-0.218605 -0.0575314 5.23198 6975612
-0.217447 -0.0566523 5.23469 6250601
-0.217536 -0.0576128 5.22948 7237495
-0.19373 -0.0505549 5.26155 6317933
-0.239689 -0.0573351 5.23701 9016483
-0.235663 -0.0580724 5.22971 3885668
-0.232901 -0.0582914 5.22831 2965074
-0.224854 -0.0574244 5.22962 4149351
-0.221461 -0.0576401 5.23135 3815749
-0.220768 -0.0576822 5.22975 9410206
-0.199136 -0.0521115 5.25408 3684671
-0.227678 -0.0554839 5.24011 2633273
-0.243031 -0.0536046 5.25096 9542313
-0.241558 -0.0563822 5.23802 11582148
-0.237135 -0.057123 5.23361 6318207
-0.23611 -0.0570501 5.23232 9742008
-0.232904 -0.0584409 5.22477 11646394
-0.217939 -0.0565472 5.23231 8618376
-0.231996 -0.0578159 5.22741 12831186
-0.228827 -0.0574468 5.22893 2169630
-0.234408 -0.0567233 5.23235 2236459
-0.233546 -0.0574588 5.22955 9080723
-0.225575 -0.0628467 5.20131 5133151
-0.242692 -0.054218 5.24508 11517386
-0.238243 -0.0558958 5.23505 5397352
-0.217815 -0.0551669 5.23398 8027782
-0.244974 -0.0531244 5.24883 7831952
-0.242269 -0.0543514 5.24169 9147815
-0.23574 -0.0552406 5.23661 7239815
-0.234817 -0.0567863 5.22967 13820137
-0.233455 -0.0550488 5.23777 11582663
-0.222557 -0.0564898 5.229 3751755
-0.170946 -0.0391674 5.30216 6711661
6.91267 3.38687 20.4788 8087134
-0.245966 -0.0535536 5.24676 6055540
-0.237697 -0.0565545 5.22947 6252665
-0.241041 -0.0556159 5.23515 10793147
-0.238923 -0.0554806 5.23456 5792630
-0.234333 -0.0573611 5.22527 12241366
-0.232295 -0.0566993 5.22728 8754084
-0.220184 -0.0555766 5.23069 4212309
-0.210996 -0.053199 5.24003 3751496
-0.191829 -0.0474404 5.26511 5266787
-0.245551 -0.0531657 5.24685 10070457
-0.233237 -0.0567772 5.22609 10596032
-0.202637 -0.0505524 5.25001 3356482
-0.23742 -0.0545501 5.23623 10661305
-0.234467 -0.0559512 5.22907 5332332
-0.232321 -0.0564628 5.22658 9674676
-0.231382 -0.0568107 5.22461 11055808
-0.227749 -0.0565235 5.22588 4998987
-0.210923 -0.0524397 5.24148 5462114
-0.192861 -0.0472835 5.26271 5857637
-0.235779 -0.053921 5.23808 11517390
-0.232995 -0.0558949 5.22951 9674677
2.3026 1.23229 10.6874 9344402
-0.239356 -0.0545267 5.2353 7438224
-0.237684 -0.0548101 5.23396 10069421
-0.232623 -0.0552791 5.22971 4939125
-0.231951 -0.0562964 5.22541 7568787
-0.223234 -0.055227 5.22881 2565419
-0.222038 -0.0546358 5.23022 4344923
-0.218484 -0.0542511 5.23256 5593708
-0.160115 -0.0313528 5.32664 5594973
2.39904 1.30425 10.9855 4404527
-0.23872 -0.0549429 5.23389 10660790
-0.230859 -0.0561743 5.22542 3751502
8.95585 3.80742 20.7548 7892067
-0.241863 -0.0536436 5.23876 11122373
-0.238381 -0.054178 5.23552 9607592
-0.227511 -0.0557498 5.22467 3815746
1.94586 1.07668 9.89503 5922396
-0.23792 -0.0543764 5.23337 12898783
-0.23601 -0.0541384 5.23425 8229030
-0.23601 -0.0541384 5.23425 8229030
2.62564 1.42879 11.3442 5263695
11.2759 5.01342 25.5946 11572084
-0.239162 -0.0540209 5.23378 11320003
-0.238728 -0.0532412 5.238 10793663
-0.233541 -0.0552567 5.22724 5269891
-0.223933 -0.0535773 5.23244 4212826
2.08277 1.12803 10.0162 7630953
11.8031 5.37204 26.8476 8942171
-0.24097 -0.0531968 5.23667 11516102
-0.213085 -0.0521994 5.23556 4803670
-0.192412 -0.045341 5.26246 8228249
-0.185891 -0.0421865 5.27523 7506582
-0.185891 -0.0421865 5.27523 7506582
2.2429 1.21108 10.3528 7630953
14.013 6.24668 30.093 7630697
-0.237265 -0.0540722 5.23157 12635612
-0.235894 -0.054352 5.23053 4345958
-0.234796 -0.0542396 5.23111 5268863
-0.195109 -0.0457378 5.25934 7962502
10.6205 4.99136 25.0772 7823701
14.2565 6.52414 30.9123 6116685
-0.24038 -0.0528337 5.2369 11714507
-0.193782 -0.0452709 5.26069 7505038
-0.173244 -0.0357182 5.29803 5924724
2.22045 1.28869 10.5436 7700092
2.76522 1.56473 11.6224 4077109
2.84526 1.53585 11.5257 11437150
-0.237697 -0.0519829 5.23781 6779781
-0.237697 -0.0519829 5.23781 6779781
-0.231683 -0.0546031 5.22672 5268350
0.488644 0.544747 7.51888 8820131
6.21907 2.81498 16.3348 6379347
-0.241447 -0.0518897 5.23924 7107200
-0.240099 -0.0522884 5.23754 7898002
-0.22933 -0.0543484 5.22704 3161688
-0.195904 -0.0455883 5.25751 6387078
2.76616 1.52755 11.3402 7360315
-0.239223 -0.0528703 5.23368 11057092
-0.236928 -0.0530414 5.23156 4675693
-0.225451 -0.053515 5.22743 5004399
6.13108 2.93424 16.3184 6643547
-0.239527 -0.0525843 5.2339 8884382
-0.238938 -0.0524547 5.23403 10068913
-0.22426 -0.0532943 5.22761 3751498
-0.194008 -0.0439181 5.26033 8818842
2.16387 1.32381 10.378 6645093
4.5198 2.10976 13.345 7301991
-0.246642 -0.0471414 5.25679 11255244
-0.238106 -0.0534066 5.22899 8161175
-0.236079 -0.0532396 5.22981 4544366
6.13541 2.93629 16.326 6643547
-0.24529 -0.0474387 5.25227 8424863
-0.239282 -0.0516939 5.23366 7831691
-0.237429 -0.0525043 5.23185 10069682
2.18442 1.27985 10.1939 6051150
3.00406 1.68748 11.6523 8552570
-0.240685 -0.0510027 5.23582 8094092
-0.239527 -0.0525843 5.2339 8884382
-0.187415 -0.0398147 5.27268 5927044
-0.183103 -0.037155 5.28187 5992061
11.3652 5.86945 26.7722 9542811
7.51437 3.78167 19.2036 5917769
5.24778 2.50175 14.4563 5393224
-0.247475 -0.0459339 5.25927 5924984
-0.236957 -0.0534632 5.226 8228514
2.08998 1.23629 9.89934 6908002
2.57357 1.42965 10.699 7829113
-0.239282 -0.0516939 5.23366 7831691
-0.237065 -0.0535283 5.22558 8951723
-0.0927385 0.675456 7.87295 7239306
8.19826 4.08745 19.9853 5789011
9.76169 4.79302 22.4778 7899023
-0.240732 -0.0510773 5.23556 8752535
-0.238274 -0.0514113 5.23144 6253700
-0.246645 -0.0452316 5.25819 12044246
-0.239649 -0.0499784 5.2379 10134965
-0.236755 -0.04955 5.23796 11123146
2.33174 1.45945 10.6416 7305079
4.64332 2.6645 14.8383 8488064
5.57193 2.78492 15.1769 5327947
-0.237722 -0.0512785 5.23217 10728647
-0.23448 -0.052004 5.22809 13095644
-0.21815 -0.0497454 5.23467 6250603
-0.184266 -0.0369289 5.27654 6584454
5.42818 2.989 15.903 7961977
6.73802 3.58601 17.9326 8488838
8.09849 4.21222 20.1353 8818323
7.65594 3.98452 19.339 8818323
-0.238794 -0.0508649 5.23314 5859194
-0.215621 -0.0489195 5.23585 6186094
9.47978 4.83702 22.1466 8820123
-0.245975 -0.0464416 5.24917 9742010
-0.239451 -0.0476158 5.24442 8885412
-0.236755 -0.04955 5.23796 11123146
-0.23513 -0.0517016 5.22702 11384773
5.4784 3.01458 15.7459 5063999
-0.238858 -0.0502914 5.23378 6647940
-0.238147 -0.0506763 5.23208 11912408
-0.227838 -0.0508308 5.22919 3551547
-0.225094 -0.0504923 5.23055 3950684
-0.218735 -0.0495824 5.23253 4867403
-0.192741 -0.0399377 5.26382 3092532
2.78289 1.74476 11.42 7435380
8.15236 4.26438 19.8836 5195330
4.18967 2.17839 12.7746 5985878
-0.242215 -0.0490161 5.23869 6317684
-0.2326 -0.0514619 5.22751 3617853
-0.218676 -0.0483961 5.23591 6448753
-0.248054 -0.042355 5.26325 4015192
-0.241401 -0.0497947 5.23375 8884639
-0.240171 -0.0501767 5.23195 12042438
-0.233152 -0.0514991 5.22605 9934495
-0.207058 -0.0453531 5.24394 10396841
2.83649 1.61265 10.8324 7831680
-0.24456 -0.0464846 5.24615 4541789
-0.240523 -0.0494446 5.23476 11318714
-0.232781 -0.0508251 5.22827 7827832
-0.19539 -0.0408145 5.25803 6252398
2.38639 1.54797 10.624 6250593
2.84044 1.77715 11.4128 6248786
3.27776 1.94531 11.947 7897221
6.51374 3.48949 17.0527 5654854
4.93181 2.6026 13.9989 6580333
-0.246856 -0.0442995 5.25384 10596034
-0.240171 -0.0501767 5.23195 12042438
-0.234218 -0.0510286 5.22707 15462644
-0.224866 -0.0505283 5.22693 3223357
-0.217275 -0.048291 5.23376 6250346
-0.209511 -0.0462219 5.2396 3618108
-0.207762 -0.0449046 5.24225 11187900
-0.189844 -0.0378803 5.26649 5199702
3.33137 2.04102 12.2113 6185050
6.32142 3.34661 16.3926 8426402
-0.246133 -0.0440717 5.25444 7372439
-0.236966 -0.0491882 5.234 12175317
-0.222466 -0.0497086 5.22887 5331306
-0.20915 -0.0452316 5.24213 3355192
-0.238879 -0.0492264 5.23313 11386062
-0.232992 -0.0514801 5.22465 11515843
-0.230336 -0.0487927 5.23286 13883609
-0.207762 -0.0449046 5.24225 11187900
-0.184443 -0.034364 5.27618 8360350
3.02838 1.80428 11.2923 7302762
4.14087 2.36335 13.1166 8883593
5.51797 3.06072 15.3185 9936283
-0.247553 -0.0434455 5.25537 6847119
-0.245305 -0.0433425 5.25521 4079442
-0.188277 -0.0358605 5.27029 6713461
9.27608 5.59616 23.5453 7501685
5.18004 2.92852 14.8728 4932674
6.64165 3.53131 16.9747 7305864
8.28137 4.46292 19.7743 6186865
-0.248286 -0.0426244 5.25717 8362413
-0.245032 -0.0449304 5.24839 8094351
-0.243079 -0.0464438 5.24277 9739429
-0.239535 -0.0488204 5.23333 7831702
-0.237542 -0.0503452 5.22793 12437977
-0.23676 -0.0498037 5.22911 11715024
-0.235287 -0.0506211 5.22536 10070201
-0.233062 -0.0511795 5.22301 14082282
-0.23232 -0.0512689 5.22313 9609136
-0.230215 -0.0500435 5.22801 12039349
-0.220182 -0.0485856 5.2308 4606038
-0.219251 -0.0479895 5.23232 6250861
-0.206867 -0.0442009 5.24326 9213857
9.2983 5.60941 23.5883 7501685
2.44244 1.49914 10.2365 4801600
6.37182 3.45384 16.3511 5923173
-0.246025 -0.0436504 5.25238 3422799
-0.24445 -0.0440187 5.24996 5790314
-0.233062 -0.0511795 5.22301 14082282
-0.188016 -0.0352618 5.27019 6778997
2.07041 1.38714 9.82162 6316894
2.00374 1.33996 9.61215 6579556
-0.242536 -0.0463143 5.24108 9674413
-0.238922 -0.0484501 5.23298 8028823
2.07035 1.3871 9.8215 6316894
6.43284 4.04398 18.3587 6252384
3.10203 1.9083 11.4488 7569019
3.25538 1.95414 11.587 7633268
-0.245903 -0.0435598 5.25033 6056575
-0.2317 -0.0484227 5.23125 12503511
-0.231423 -0.0504527 5.22375 9542575
10.5817 6.45482 25.6748 7567221
2.98732 1.71314 10.7636 7767185
-0.236763 -0.0474402 5.23447 11320009
-0.20767 -0.0438887 5.24183 4541786
2.77628 1.86808 11.276 6907491
2.00384 1.34002 9.61233 6579556
-0.246325 -0.0428852 5.25156 9416134
-0.232941 -0.0501864 5.22383 13951207
-0.220156 -0.0475117 5.23036 5790565
5.31211 3.20564 15.273 6118745
3.72803 2.1359 11.9697 4865856
-0.233731 -0.0494769 5.22521 8951719
-0.23005 -0.050326 5.22328 13357529
-0.222333 -0.047614 5.22951 3749954
-0.195605 -0.0377903 5.25816 9147290
-0.246376 -0.0439612 5.24525 10271695
-0.243301 -0.045298 5.24254 8489885
-0.233731 -0.0494769 5.22521 8951719
-0.230432 -0.0491058 5.22543 12898268
-0.206123 -0.0420687 5.24485 8950428
-0.206123 -0.0420687 5.24485 8950428
1.76873 1.25269 9.22224 13353917
1.51331 1.03982 8.49956 10527935
-0.259125 -0.0559258 5.20789 7890256
-0.245027 -0.0417268 5.252 4344155
-0.243959 -0.0412487 5.25323 4937579
-0.239778 -0.0475208 5.23168 11583953
-0.229379 -0.0490246 5.22428 12239054
3.73397 2.27992 12.1986 5854547
6.78777 3.97073 17.3287 8951712
-0.235052 -0.0487929 5.22599 13030109
-0.232995 -0.04911 5.22428 11451587
-0.208746 -0.0425443 5.24171 9146260
2.31302 1.53752 9.96027 10856888
4.49057 2.8537 13.9031 4604994
3.78952 2.25676 11.9947 9084322
-0.235633 -0.0517655 5.21341 10727618
-0.235404 -0.0507136 5.21645 9280430
-0.211769 -0.0442856 5.23547 3882053
7.54783 4.4906 18.5946 7436927
-0.244449 -0.0418505 5.24981 4213854
-0.233973 -0.0485026 5.22564 12767966
-0.231137 -0.0499321 5.22029 10398654
-0.245274 -0.0402797 5.2538 8691126
-0.23771 -0.0476802 5.2282 7964317
-0.236779 -0.0485295 5.22512 7306643
-0.234434 -0.0468079 5.2301 9149097
-0.232949 -0.0487353 5.22345 11648713
3.55189 2.24707 11.8947 10527149
-0.23873 -0.0470015 5.23007 11254215
-0.235303 -0.0481587 5.2256 12569558
-0.232472 -0.0483047 5.22426 9411243
-0.209626 -0.0423673 5.23864 12043983
-9.43856 -7.92117 -18.2453 9803678
-0.228306 -0.047318 5.22609 11384772
-0.229067 -0.0473261 5.22614 11779274
-0.208985 -0.0418264 5.23855 7900571
-0.231588 -0.0482912 5.22269 9675186
-0.23097 -0.0491536 5.21921 6384253
-0.231423 -0.0490961 5.21897 8819106
0.151206 0.170502 5.83036 11317161
1.1693 0.835973 7.64863 13419188
-0.228052 -0.0457965 5.22453 7372946
-0.22801 -0.0444088 5.22602 4542566
-1.41811e+52 -1.30608e+52 -3.42893e+52 5986911
-0.217671 -0.101937 5.26273 2563622
-0.216787 -0.101575 5.26581 9678273
-0.212972 -0.102803 5.27095 8690601
-0.223566 -0.0999118 5.26892 13161694
-0.229982 -0.101665 5.28796 9938616
-0.226812 -0.0970493 5.26307 13819365
-0.222877 -0.0956323 5.25291 13883868
-0.220933 -0.0954496 5.25349 13884385
-0.212355 -0.0988148 5.26735 11978194
-0.215589 -0.093764 5.25156 12634324
-0.220899 -0.0925674 5.25077 10332086
-0.215893 -0.0916354 5.24942 9608624
-0.21419 -0.0926996 5.25401 12306385
-0.228322 -0.0892628 5.24353 14147298
-0.22054 -0.0895046 5.24616 13949151
-0.223156 -0.0885981 5.24334 9738916
-0.229554 -0.0883734 5.24761 10068399
-0.217109 -0.0884597 5.24618 13753057
-0.224131 -0.0877575 5.2482 12896975
-0.218953 -0.0874286 5.24235 6713213
-0.227231 -0.0860065 5.24269 14607851
-0.237522 -0.0862281 5.25961 8360099
-0.225199 -0.085455 5.24108 10793153
-0.219955 -0.085615 5.2418 14015971
-0.229632 -0.0849577 5.2416 13095386
-0.222759 -0.0834769 5.23695 13884388
-0.225339 -0.0836605 5.24345 10594742
-0.222222 -0.0826268 5.23272 7765904
-0.218192 -0.0832129 5.23919 6581374
-0.23126 -0.0828513 5.2437 9872044
-0.228693 -0.0824682 5.24093 7371138
-0.223674 -0.0821364 5.24399 12370637
-0.234766 -0.081934 5.24286 12897750
-0.22553 -0.081934 5.23954 14278117
-0.222663 -0.0817068 5.23462 6845831
-0.217662 -0.0818352 5.23733 14147047
-0.22037 -0.0815567 5.24298 14147042
-0.213748 -0.08167 5.24002 6581881
-0.180325 -0.0851729 5.31099 8484719
-0.231917 -0.0809406 5.23824 11123393
-0.228605 -0.081305 5.24444 14147557
-0.218649 -0.0802416 5.24123 10069169
-0.216388 -0.0801769 5.23792 6317173
-0.217666 -0.0798325 5.2384 9278369
-0.236581 -0.0792527 5.23628 3884887
-0.232081 -0.0790563 5.2366 5923185
-0.221052 -0.0788672 5.23559 10266806
-0.212698 -0.079019 5.24219 3357507
-0.233739 -0.0781372 5.2408 2433319
-0.212396 -0.0782542 5.23701 3160392
-0.236346 -0.0772315 5.24382 11254981
-0.188933 -0.0781991 5.27482 9149087
-0.238086 -0.0762688 5.25105 2634565
-0.209824 -0.0765068 5.2433 9346727
-0.23895 -0.0747887 5.24813 13293283
-0.236267 -0.0748978 5.24891 3025455
-0.216973 -0.0746835 5.2391 2895927
-0.215706 -0.0747458 5.2389 5725539
-0.239721 -0.0734774 5.25322 4077629
-0.203835 -0.0730733 5.24933 8491420
-0.235073 -0.0721973 5.2472 9476519
-0.177881 -0.0701178 5.29916 3750457
-0.175427 -0.0672803 5.30023 3090468
-0.217989 -0.0706301 5.23503 5591375
-0.232259 -0.0704474 5.23165 13688293
-0.22814 -0.0705002 5.2259 14607593
-0.200492 -0.068528 5.25434 4606277
-0.227019 -0.0698074 5.22302 12503767
-0.217641 -0.0688906 5.23591 8292497
-0.217241 -0.0675649 5.23671 10991042
-0.23427 -0.067243 5.23454 7831948
-0.220497 -0.0673703 5.23142 13096159
-0.238864 -0.0657599 5.24278 12108748
-0.226757 -0.0678741 5.21882 4211792
-0.219129 -0.0663977 5.23183 11254468
-0.220942 -0.0661221 5.23148 2964301
-0.216696 -0.0656276 5.23517 8557209
-0.218849 -0.0653125 5.23501 5858413
-0.2095 -0.0647797 5.23963 6844800
-0.214195 -0.0649109 5.23496 7239811
-0.218533 -0.0645112 5.23455 9214890
-0.213384 -0.0630054 5.24398 8818842
-0.240213 -0.0636405 5.23725 10266291
-0.235516 -0.063475 5.23562 9412271
-0.219878 -0.0636603 5.23211 4345181
-0.250095 -0.0572111 5.28148 9610674
-0.23096 -0.06432 5.22599 3952744
-0.239089 -0.0618638 5.24175 11911369
-0.236957 -0.0617762 5.23915 12502736
-0.218062 -0.0617689 5.23301 6186355
-0.216362 -0.0615551 5.23326 5396317
-0.212083 -0.0609523 5.23902 7568003
-0.247548 -0.0571237 5.26148 7768730
-0.242228 -0.058759 5.24509 8884383
-0.237669 -0.0605376 5.23318 9346480
-0.216041 -0.0595371 5.23574 5987682
-0.239652 -0.0594366 5.23951 9872050
-0.215664 -0.05862 5.23563 8093577
-0.163845 -0.0431858 5.31629 3945265
-0.180666 -0.0485041 5.28253 3681840
-0.240523 -0.057325 5.24158 11648196
-0.234137 -0.0593616 5.22877 7240850
-0.219192 -0.0582383 5.23087 10726069
-0.232324 -0.058233 5.22845 3292244
-0.243915 -0.0546261 5.24758 7963539
-0.243643 -0.0532058 5.25201 10727099
-0.232365 -0.0576495 5.22782 14016744
-0.238248 -0.0547527 5.23934 5857904
-0.218835 -0.0558908 5.2298 8159626
-0.233237 -0.0567772 5.22609 10596032
-0.24656 -0.0508278 5.25603 9674668
-0.236077 -0.0561824 5.23091 6317941
-0.23114 -0.0558764 5.22298 4938871
3.42724 1.86095 12.915 5458758
-0.236935 -0.0537151 5.23221 10267839
11.5229 5.43897 26.5736 6774621
-0.238152 -0.0533057 5.2326 6647167
-0.23707 -0.053023 5.23168 5463927
2.72403 1.53091 11.1854 12032889
-0.2447 -0.0482021 5.25149 7304326
-0.193534 -0.0434877 5.26085 7439507
-0.1887 -0.0412268 5.26897 6652567
5.28813 2.48895 14.5254 6116431
-0.240405 -0.0516623 5.23501 7437975
11.1495 5.68658 25.9574 5456958
1.86188 1.18729 9.65628 6184797
7.52953 3.91082 19.1402 8290690
-0.189674 -0.0395519 5.26769 2763824
-0.248556 -0.0423822 5.26579 10269892
2.55098 1.66827 10.9377 5527382
6.01995 3.50101 17.0013 5724239
1.61812 1.05916 8.8704 4734778
11.0174 5.95462 24.8833 9213331
-0.248785 -0.0419344 5.258 4346208
6.2398 3.5234 16.5341 7171953
-0.24694 -0.0431198 5.25156 3423829
1.56991 1.13926 8.84113 14142138
2.89817 1.95567 11.16 10590355
-0.208481 -0.0385843 5.24307 8688291
-0.22397 -0.053666 5.19409 13547438
-0.216809 -0.0998104 5.2582 5794947
-0.224903 -0.0928067 5.24602 10530491
-0.218953 -0.0874286 5.24235 6713213
-0.22037 -0.0815567 5.24298 14147042
-0.21648 -0.0822095 5.23929 12766939
-0.208917 -0.0812635 5.24404 9674154
-0.223832 -0.0782278 5.22935 4411749
-0.227268 -0.076912 5.23647 15331314
-0.171832 -0.0774431 5.31897 7502979
-0.18249 -0.071831 5.29549 6517114
-0.219515 -0.0714224 5.23403 5261382
-0.232738 -0.0692556 5.23098 9872307
-0.217892 -0.0651374 5.23057 8884636
-0.161909 -0.0388598 5.32164 4011058
-0.234979 -0.0587928 5.22343 4675952
-0.237802 -0.0550571 5.23974 5858933
-0.23678 -0.0551444 5.23119 11056836
-0.236187 -0.052041 5.22754 12965089
-0.244899 -0.0452499 5.24931 4541015
-0.207925 -0.0453322 5.24051 6781057
-0.242782 -0.0445368 5.24735 9608363
-0.230115 -0.0493986 5.22841 12570331
-0.246376 -0.0439612 5.24525 10271695
-0.234149 -0.0999807 5.23806 5647641
-0.226064 -0.109515 5.2783 7289882
-0.215213 -0.105372 5.26092 5255716
-0.211702 -0.10797 5.27217 6829591
-0.181567 -0.131439 5.37288 5517343
-0.217832 -0.107766 5.2753 9856837
-0.219486 -0.104033 5.25976 2300442
-0.221921 -0.100416 5.24276 3090215
-0.208772 -0.108851 5.27729 8473639
-0.20485 -0.109616 5.28127 9195303
-0.224769 -0.109085 5.28339 7882535
-0.210865 -0.107468 5.27357 6829589
-0.232418 -0.107944 5.28298 5451551
-0.225872 -0.103818 5.26232 9003081
-0.21566 -0.106922 5.27506 2430482
-0.214857 -0.106885 5.27484 9326889
-0.21193 -0.105464 5.26728 6960407
-0.204505 -0.108816 5.28154 2892066
-0.215898 -0.108371 5.28226 2365463
-0.215908 -0.106434 5.27533 7839931
-0.231492 -0.108553 5.29045 4335649
-0.217243 -0.106243 5.27579 7836068
-0.21171 -0.104751 5.26674 6237976
-0.217299 -0.108112 5.28519 1521197
-0.217119 -0.104338 5.2679 8428712
-0.230566 -0.106932 5.2853 8736299
-0.230314 -0.104053 5.27135 6764318
-0.221552 -0.105891 5.27783 3745573
-0.198664 -0.10938 5.28993 5187607
-0.0818106 -0.304273 6.3264 4076596
-0.226244 -0.100103 5.26337 4673634
-0.22427 -0.102548 5.26396 6048578
-0.221049 -0.105064 5.27626 10532804
-0.216345 -0.102585 5.26634 6318709
-0.220374 -0.104963 5.27887 3356224
-0.213594 -0.104272 5.27393 9341836
-0.198085 -0.108184 5.29139 6172699
-0.225478 -0.105825 5.28721 14211023
-0.222289 -0.105744 5.28565 10728380
-0.228207 -0.103025 5.27443 9333077
-0.225037 -0.102609 5.27226 9413555
-0.223688 -0.10097 5.26349 4408405
-0.222976 -0.099732 5.2585 4805734
-0.207101 -0.102514 5.27076 6501146
-0.23047 -0.104245 5.28392 3416861
-0.22652 -0.103164 5.27975 10069166
-0.226123 -0.10179 5.27166 3090475
-0.220088 -0.0982242 5.25225 7900318
-0.226244 -0.100103 5.26337 4673634
-0.217727 -0.0985775 5.2555 8098467
-0.227114 -0.103862 5.28663 8286314
-0.22586 -0.101288 5.2718 3354425
-0.197784 -0.106379 5.29305 7224865
-0.226088 -0.102862 5.28183 2302248
-0.225505 -0.105433 5.29886 3619919
-0.229389 -0.103901 5.29317 4275004
-0.206846 -0.101726 5.27641 7092762
-0.229745 -0.0986057 5.26386 10070963
-0.227515 -0.0992299 5.26604 12636896
-0.215375 -0.0984474 5.26028 10072515
-0.222895 -0.107 5.32143 11715536
-0.229278 -0.101597 5.28789 12306645
-0.227642 -0.0975428 5.26249 10794953
-0.231282 -0.0989064 5.27618 12175057
-0.213575 -0.0975109 5.26178 11582665
-0.212538 -0.0967431 5.25565 12107982
-0.218492 -0.114081 5.36385 11715279
-0.231268 -0.100134 5.28501 9935522
-0.211424 -0.0962547 5.25488 8943989
-0.234522 -0.0987365 5.28239 10658465
-0.211495 -0.0952466 5.25509 12239823
-0.22993 -0.099012 5.28421 11847121
-0.220287 -0.0946517 5.25332 13884131
-0.216706 -0.0945173 5.25106 12897238
-0.210511 -0.0951146 5.25604 11845577
-0.233777 -0.100499 5.29457 9408408
-0.233229 -0.0917594 5.24062 9544373
-0.23028 -0.0954016 5.26244 10068661
-0.223882 -0.0940763 5.25276 9806250
-0.23261 -0.0959484 5.26987 13094615
-0.216706 -0.0945446 5.25757 13489119
-0.213569 -0.0942569 5.25296 8685976
-0.21083 -0.094759 5.25578 12305613
-0.215323 -0.0939588 5.25486 13817825
-0.210377 -0.0952199 5.26042 10068915
-0.208004 -0.0938623 5.25587 9938615
-0.216541 -0.0969396 5.27477 10003636
-0.234452 -0.0984669 5.29398 5990007
-0.232472 -0.0954769 5.27201 9608880
-0.230552 -0.0930385 5.25967 10071230
-0.228047 -0.0931203 5.25301 12041414
-0.224573 -0.0924127 5.2505 9937840
-0.222585 -0.0918022 5.24434 8621209
-0.235269 -0.0958147 5.27983 9148836
-0.233831 -0.0960853 5.28072 11715025
-0.2288 -0.0937938 5.26213 10726328
-0.209034 -0.0928148 5.25105 9611193
-0.205456 -0.0945137 5.26237 9216432
-0.212399 -0.0937168 5.26158 12042700
-0.218371 -0.0921644 5.25014 9213351
-0.235272 -0.0965636 5.29184 6516862
-0.235239 -0.0937734 5.27081 10860486
-0.229746 -0.0915276 5.251 11054781
-0.215865 -0.0930205 5.25668 11977166
-0.202685 -0.0951363 5.27378 6979733
-0.23248 -0.0911194 5.2531 10332602
-0.23097 -0.092454 5.25838 10268352
-0.222107 -0.0911048 5.24983 12107720
-0.219013 -0.0910063 5.25039 13028310
-0.235554 -0.100449 5.32683 9601402
-0.224024 -0.0899209 5.24209 14015200
-0.222252 -0.0902832 5.24466 10464442
-0.232409 -0.0910731 5.26976 11517641
-0.226748 -0.0900839 5.24852 14147045
-0.220987 -0.090681 5.24818 11187395
-0.219013 -0.0910063 5.25039 13028310
-0.204188 -0.0930181 5.26425 6386309
-0.201936 -0.0935016 5.26665 3091764
-0.236839 -0.0930873 5.27567 10924479
-0.225077 -0.0895891 5.24361 12042439
-0.237834 -0.0937517 5.28809 11117221
-0.214469 -0.0903893 5.24734 10793150
-0.200809 -0.0926007 5.2649 6438949
-0.234211 -0.096737 5.31099 10200756
-0.227923 -0.0899064 5.24919 14542314
-0.21355 -0.0899998 5.24875 10331569
-0.202274 -0.0925548 5.26702 6317425
-0.200491 -0.0929071 5.27007 10335680
-0.235598 -0.0917661 5.27098 11121858
-0.234904 -0.0902339 5.2571 9541288
-0.230167 -0.0892552 5.24693 13555424
-0.229074 -0.0890934 5.24557 11975878
-0.213648 -0.0900888 5.251 12831445
-0.234242 -0.0911785 5.26758 10265266
-0.211913 -0.090218 5.25331 8620443
-0.236427 -0.09145 5.27304 7109255
-0.233026 -0.0915116 5.27177 12371665
-0.225584 -0.0885069 5.24295 10528692
-0.222765 -0.0882385 5.2419 9279138
-0.200039 -0.092265 5.27045 4735816
-0.237283 -0.0928941 5.28838 9408919
-0.232377 -0.0887766 5.24897 13227749
-0.230598 -0.0886136 5.24821 10199983
-0.206498 -0.0904019 5.25762 11058121
-0.198187 -0.0923977 5.27357 10527143
-0.201068 -0.0918084 5.27117 7570575
-0.238823 -0.0916571 5.28437 13357267
-0.236936 -0.0902548 5.2701 7766675
-0.219108 -0.0888366 5.25086 9607591
-0.217109 -0.0884597 5.24618 13753057
-0.212911 -0.0887729 5.24856 11911373
-0.206983 -0.0888943 5.2527 9084331
-0.213456 -0.0883839 5.2493 8950947
-0.238344 -0.0898264 5.27287 12568527
-0.237164 -0.0899824 5.27772 9544111
-0.236525 -0.0876014 5.2497 8687262
-0.226497 -0.0870896 5.24037 10924990
-0.214518 -0.0878627 5.24857 11910601
-0.204186 -0.0888682 5.25492 6977923
-0.200517 -0.0895459 5.26481 5001300
-0.226979 -0.0884055 5.25762 10791859
-0.20242 -0.0895512 5.26313 10728127
-0.212129 -0.0876975 5.25429 11648456
-0.239792 -0.0913564 5.29851 12501708
-0.225563 -0.0866697 5.24328 10924218
-0.200656 -0.0894229 5.26735 10531518
-0.239202 -0.0894667 5.28169 7500936
-0.235883 -0.088202 5.26602 12765137
-0.229744 -0.0866253 5.24778 11975876
-0.228462 -0.0862832 5.24372 14936299
-0.217709 -0.0866 5.24406 12962774
-0.212468 -0.0877041 5.25512 8489370
-0.210082 -0.0871008 5.24901 11450305
-0.198309 -0.089593 5.2731 6912385
-0.234508 -0.0866601 5.25105 9214120
-0.231359 -0.0859766 5.24262 13949661
-0.219763 -0.0863932 5.24201 13424092
-0.202224 -0.088492 5.26297 7963792
-0.197429 -0.0896763 5.27386 2895155
-0.194131 -0.0902358 5.28018 8883345
-0.240793 -0.0900407 5.30111 12830155
-0.211712 -0.086692 5.24799 12503250
-0.233284 -0.0856581 5.24741 13096414
-0.207317 -0.0875961 5.26084 11251644
-0.207963 -0.0868914 5.25326 11121339
-0.208725 -0.0856394 5.24771 9871016
-0.239523 -0.0885193 5.28157 6316659
-0.238317 -0.0866186 5.26416 11254206
-0.201361 -0.0874115 5.26346 8490911
-0.220388 -0.086338 5.25502 10004407
-0.199427 -0.0876731 5.26798 9807281
-0.238976 -0.088011 5.28242 11253960
-0.235815 -0.0857605 5.25539 13752802
-0.234447 -0.0852952 5.2488 13227229
-0.224778 -0.085358 5.24063 11253442
-0.219771 -0.0845986 5.23773 13028564
-0.23986 -0.0870331 5.2764 7898008
-0.237659 -0.0869609 5.27386 6582402
-0.236269 -0.0864706 5.26788 10727102
-0.233308 -0.085318 5.24926 9938096
-0.232624 -0.0844964 5.23888 9936812
-0.232624 -0.0844964 5.23888 9936812
-0.216509 -0.0850484 5.24279 11187138
-0.21542 -0.0852071 5.24364 13950181
-0.202677 -0.086397 5.26277 7043725
-0.209556 -0.082902 5.2288 4539719
-0.219771 -0.0845986 5.23773 13028564
-0.212328 -0.0849319 5.24578 12041929
-0.201658 -0.0866509 5.26281 9676207
-0.239011 -0.0871105 5.2831 10859969
-0.223573 -0.0847859 5.24592 13949924
-0.210553 -0.0848037 5.24546 8752284
-0.208725 -0.0856394 5.24771 9871016
-0.200341 -0.0865441 5.27162 9345448
-0.236375 -0.0843573 5.24963 12371666
-0.235114 -0.0843565 5.24711 7568519
-0.234386 -0.0842737 5.24483 13884387
-0.228036 -0.0842219 5.24365 10398650
-0.237284 -0.0854909 5.26823 9147813
-0.2243 -0.0835339 5.23683 12897495
-0.216513 -0.0838951 5.24191 7305864
-0.175335 -0.0904958 5.32857 4273202
-0.227625 -0.0834847 5.24158 11581889
-0.213041 -0.0841756 5.24549 12634064
-0.241507 -0.0853873 5.27404 11055548
-0.238892 -0.084632 5.2624 4936547
-0.237673 -0.0846242 5.26239 8885156
-0.23649 -0.0836974 5.25102 3884632
-0.225057 -0.0830334 5.23843 10859198
-0.219813 -0.0835439 5.24352 6647426
-0.208076 -0.0843102 5.24936 8029330
-0.199069 -0.0849748 5.26785 9412524
-0.238667 -0.0844135 5.27148 10003636
-0.225954 -0.0824512 5.2391 10200500
-0.216235 -0.0831298 5.24126 13950692
-0.242995 -0.0861134 5.30312 10984601
-0.238249 -0.0834924 5.25981 11647686
-0.235684 -0.0829632 5.24852 7438480
-0.234697 -0.0826753 5.24011 5462888
-0.23365 -0.0827212 5.24224 9215914
-0.210609 -0.0834412 5.25044 11581114
-0.20191 -0.084479 5.26161 6846089
-0.182208 -0.0868623 5.30564 4336934
-0.241765 -0.0843724 5.27588 9345189
-0.237326 -0.082838 5.25071 11913426
-0.221199 -0.0824369 5.23777 13622503
-0.214195 -0.0828563 5.24174 10002089
-0.205903 -0.0836001 5.25086 10135987
-0.197 -0.0843553 5.27067 8098207
-0.194481 -0.0846657 5.27443 3421749
-0.232069 -0.0820606 5.24209 11647682
-0.217683 -0.0822261 5.24241 8555676
-0.209044 -0.0831392 5.2518 9080471
-0.243163 -0.0834448 5.28103 8347212
-0.239748 -0.0833132 5.27052 6515582
-0.226304 -0.0817798 5.24204 11976394
-0.201654 -0.0828896 5.26356 7437964
-0.23749 -0.0821146 5.24842 10530236
-0.174997 -0.086228 5.32634 8677721
-0.236906 -0.0815313 5.24438 9543853
-0.199028 -0.0829225 5.2666 7898005
-0.181492 -0.0847064 5.31519 6782344
-0.240312 -0.0827516 5.27704 5463921
-0.237246 -0.0833927 5.28406 10991558
-0.224568 -0.0811508 5.2355 10266807
-0.21144 -0.0821653 5.25716 12306902
-0.201523 -0.082875 5.26221 8755625
-0.244116 -0.0836709 5.30566 10714987
-0.241377 -0.0837417 5.29399 7107201
-0.232048 -0.0807022 5.23797 10397357
-0.212113 -0.0810916 5.24266 13227479
-0.188092 -0.0839309 5.29278 4276542
-0.238683 -0.0820552 5.27007 10134966
-0.234581 -0.0812189 5.24727 5724773
-0.226929 -0.0807311 5.24005 14673646
-0.223148 -0.0809109 5.23972 13949411
-0.216209 -0.0813544 5.24319 10792378
-0.225412 -0.0802415 5.23496 14607852
-0.197191 -0.0813863 5.2696 7505299
-0.239809 -0.0816731 5.27807 7503759
-0.236966 -0.0804363 5.24218 9081759
-0.214854 -0.0805831 5.23918 11583178
-0.20537 -0.0812045 5.25077 10464439
-0.203495 -0.0812295 5.25447 7175564
-0.196435 -0.0812657 5.27392 6978191
-0.241912 -0.0817317 5.2863 13555686
-0.218649 -0.0802416 5.24123 10069169
-0.210864 -0.0806616 5.24711 9213342
-0.209956 -0.0806164 5.24626 7174274
-0.204561 -0.0816412 5.26058 10857653
-0.198992 -0.0810287 5.26326 5662327
-0.187694 -0.0824806 5.29196 4870222
-0.242967 -0.0817648 5.27592 9345446
-0.240107 -0.0808022 5.26619 7766420
-0.239144 -0.0799115 5.246 11319495
-0.237083 -0.0800383 5.24466 6450555
-0.235367 -0.0795519 5.23893 6712956
-0.22871 -0.0802398 5.23771 6186350
-0.223418 -0.0800501 5.23951 9542826
-0.221992 -0.0796008 5.23529 9540767
-0.178718 -0.083172 5.31342 3024420
-0.214989 -0.0800325 5.24105 8886439
-0.244167 -0.0807389 5.29034 12371660
-0.240387 -0.0804641 5.27131 6647425
-0.232178 -0.0797959 5.24596 9937324
-0.208959 -0.0799249 5.2457 6055797
-0.178583 -0.0820992 5.31661 7107185
-0.178314 -0.0821232 5.31738 7107185
-0.18319 -0.0814532 5.29727 9673126
-0.231881 -0.0794302 5.24031 6055795
-0.231881 -0.0794302 5.24031 6055795
-0.219333 -0.0793243 5.23397 9542568
-0.212157 -0.0794603 5.24444 8094603
-0.167432 -0.0829878 5.3537 3620165
-0.089213 -0.0881756 5.55652 10787482
-0.243094 -0.0800461 5.28041 7699597
-0.238951 -0.0788406 5.23874 7239301
-0.22785 -0.0791727 5.24611 13095643
-0.216941 -0.0790565 5.23497 9082279
-0.212409 -0.0793064 5.23947 11188163
-0.203719 -0.0794082 5.25396 9016993
-0.198504 -0.0794924 5.26781 8097179
-0.244987 -0.0800906 5.2971 11249324
-0.241677 -0.0790025 5.25269 9478836
-0.206996 -0.0801094 5.25211 11188163
-0.180038 -0.0811436 5.31247 6383202
-0.190039 -0.0775947 5.272 8491929
-0.243874 -0.0796449 5.28859 7370889
-0.241067 -0.0793218 5.27456 6120049
-0.239923 -0.0792181 5.27165 10991046
-0.221724 -0.0789376 5.23601 6450297
-0.213166 -0.0789842 5.24437 9411231
-0.208807 -0.0791503 5.24852 11319233
-0.241791 -0.0783242 5.28136 6318204
-0.238796 -0.0789725 5.25395 9475233
-0.23308 -0.0784259 5.24363 2634564
-0.228286 -0.0784544 5.23663 12109778
-0.228286 -0.0784544 5.23663 12109778
-0.214007 -0.0785813 5.23866 11189185
-0.207262 -0.0787363 5.24692 11517642
-0.226436 -0.078311 5.23289 13358557
-0.220092 -0.0782372 5.2306 2701648
-0.199122 -0.0790681 5.26181 6848396
-0.240828 -0.0784795 5.27303 10267063
-0.239678 -0.0782789 5.25234 11714505
-0.239007 -0.0783225 5.24846 5002082
-0.237886 -0.0782317 5.24813 9147294
-0.236798 -0.0781982 5.24796 5134439
-0.203254 -0.0785932 5.25386 6648190
-0.227098 -0.0778518 5.25197 14213609
-0.224376 -0.077825 5.23117 10333624
-0.216503 -0.0779835 5.24499 2175306
-0.243355 -0.0779332 5.28634 7501961
-0.241791 -0.0783242 5.28136 6318204
-0.214639 -0.0775873 5.23664 3686990
-0.202317 -0.0779366 5.25615 9411239
