# .PCD v0.7 - Point Cloud Data file format
VERSION 0.7
FIELDS x y z rgba
SIZE 4 4 4 4
TYPE F F F U
COUNT 1 1 1 1
WIDTH 1266
HEIGHT 1
VIEWPOINT 0 0 0 1 0 0 0
POINTS 1266
DATA ascii
-0.0558506 -0.0292828 3.47344 6782355
0.0748715 0.117175 4.12298 11845332
-0.0554411 -0.0307292 3.4675 9070436
-0.0550726 -0.0305872 3.46808 5975591
-0.0630437 0.139148 4.12783 4872805
-0.054044 -0.0303311 3.46959 6053737
-0.0571027 -0.0270331 3.48103 7243670
-0.0561475 -0.0281486 3.47704 9279392
-0.0544109 -0.0352724 3.47994 13023408
-0.0539786 -0.0339829 3.47851 14146785
-0.0554071 -0.0340603 3.48094 12369862
-0.0520616 -0.0337724 3.47828 9414066
-0.0532196 -0.0325844 3.47434 2696230
-0.0541686 -0.0326447 3.47705 14805231
-0.0559248 -0.0328369 3.48169 10382412
-0.0540038 -0.0326067 3.47947 12897234
-0.0552955 -0.0319825 3.47887 3421760
-0.0550111 -0.0319053 3.4767 5921117
-0.0549397 -0.0316053 3.47302 11911630
0.246531 -0.115821 4.49127 9213078
-0.0520311 -0.0321319 3.47744 3291205
-0.0515438 -0.0318827 3.47677 7556405
-0.0552462 -0.0312204 3.47789 9937324
-0.0531113 -0.031143 3.47639 9475232
-0.0546976 -0.030626 3.47598 5657693
-0.053718 -0.0308072 3.47509 10793403
-0.0550146 -0.0302436 3.47776 12241105
-0.0547927 -0.0308046 3.46993 7371393
-0.0536814 -0.0301062 3.4761 1842211
-0.0551444 -0.0308558 3.46823 5195336
-0.0548503 -0.0298214 3.47657 11253959
-0.0536425 -0.0298124 3.47647 4476774
-0.0554832 -0.0288816 3.47822 3685965
-0.0551134 -0.0291131 3.47724 10067885
-0.0518788 -0.0294265 3.47728 7832973
-0.0537305 -0.0286952 3.47925 12503253
-0.0540147 -0.0301854 3.47119 7961220
-0.055954 -0.0280942 3.47896 5924989
-0.056242 -0.028311 3.47698 7901354
-0.0541094 -0.0302422 3.47011 6183256
-0.0553731 -0.0321467 3.46961 4729111
-0.0531027 -0.035251 3.47796 4990490
-0.0534827 -0.0354602 3.47888 5321762
-0.0533536 -0.0354806 3.47893 6829591
-0.0535045 -0.0356242 3.47986 9196589
-0.0526674 -0.0358564 3.48009 3154724
-0.05395 -0.0357798 3.48112 3417897
-0.0535651 -0.0350809 3.47886 6842473
-0.0549766 -0.0325225 3.47098 7954769
-0.0523261 -0.0357028 3.4802 6633245
-0.0535297 -0.0352101 3.47938 6713977
-0.0537292 -0.0343225 3.47643 8478022
-0.0521827 -0.03581 3.48057 6042141
-0.0548995 -0.0328627 3.47212 6975346
-0.0526962 -0.0352885 3.47935 6632219
-0.0542532 -0.035412 3.4808 9413811
-0.0534966 -0.0350951 3.47924 2632761
0.218443 -0.986268 6.7084 4206380
-0.0526156 -0.0355073 3.48065 7026970
-0.0410926 -0.0640249 3.57529 10468302
-0.0539959 -0.0338997 3.47563 9414839
-0.0538193 -0.0367935 3.48617 5067610
-0.0548099 -0.0346692 3.47907 8677469
-0.0530667 -0.0363268 3.4841 10595509
-0.0533776 -0.0348547 3.47887 8032166
-0.0538927 -0.0343285 3.47737 13489887
-0.0528516 -0.0352105 3.47997 6764576
-0.0391011 -0.106328 3.73388 5255459
-0.0535769 -0.0350112 3.47979 12700629
0.104606 -0.328556 4.45463 7497830
-0.0538541 -0.0346744 3.47881 9742521
-0.0535156 -0.034078 3.47648 9534835
-0.0555037 -0.0316417 3.46856 11057866
-0.0531672 -0.0381334 3.49172 11517644
-0.0547976 -0.0352591 3.48238 8947336
-0.0546503 -0.0364791 3.48726 11714505
-0.0548484 -0.0333063 3.47492 12635351
-0.0536288 -0.0340745 3.47717 14212840
-0.0530426 -0.0343872 3.47816 12437715
-0.0531432 -0.0349595 3.48067 13687010
-0.0550692 -0.0334346 3.47624 12174543
-0.0544876 -0.0340988 3.47816 11779014
-0.0551399 -0.0345242 3.48055 7438741
-0.0550333 -0.0348914 3.48218 9610422
-0.0530455 -0.0344801 3.47903 11318978
-0.0527906 -0.0345794 3.47913 10463412
-0.0533779 -0.0349496 3.48152 10725815
-0.053388 -0.0342112 3.47822 10661050
-0.0551148 -0.0345644 3.48087 9675698
-0.0547735 -0.034513 3.48046 13160921
-0.0527578 -0.0344281 3.47865 8951977
-0.0536514 -0.0351015 3.48231 10200243
-0.0551689 -0.0347011 3.48181 9148836
-0.0525206 -0.0342646 3.4784 6120559
-0.0551597 -0.0348297 3.483 4739160
-0.0540496 -0.0332403 3.47492 8095899
-0.0545053 -0.0326758 3.47273 9212577
-0.0531311 -0.034108 3.47804 13489372
-0.0548129 -0.0340154 3.47913 12373469
0.0899478 -0.244344 4.31383 11515328
0.0737051 -0.151054 3.91717 9470842
-0.0544267 -0.0338097 3.47802 14869996
0.0167493 -0.159106 3.99165 12568014
-0.0550155 -0.0323313 3.47173 14081764
-0.0539999 -0.0336833 3.47716 10398907
-0.0539451 -0.0336565 3.4771 10201529
-0.0549924 -0.0320954 3.47068 10529205
-0.0527558 -0.0338372 3.47759 11123657
-0.0523236 -0.0343671 3.47905 6517640
-0.0547223 -0.0328693 3.47413 11647684
-0.0122019 -0.242374 4.46993 10924217
-0.0546027 -0.0338607 3.47886 13818082
-0.0544049 -0.0343277 3.48086 13686752
-0.0528687 -0.0347458 3.48092 11318722
-0.0534128 -0.0333278 3.4752 9216693
-0.0546861 -0.0325869 3.47304 9608614
-0.0552842 -0.033131 3.47598 10135478
-0.0547581 -0.0345232 3.48258 11713738
-0.0552842 -0.033131 3.47598 10135478
-0.0553696 -0.0333246 3.47716 11977418
-0.0543513 -0.0336831 3.47817 9149101
-0.0533768 -0.0339568 3.4786 9871536
-0.0538473 -0.0332127 3.47539 8820131
-0.0547022 -0.0337924 3.47903 10727103
-0.0541151 -0.0337547 3.47844 10923960
-0.0536067 -0.0338702 3.47847 13752031
-0.0527558 -0.0338372 3.47759 11123657
-0.0537698 -0.0337937 3.47842 9410724
-0.0534944 -0.0335205 3.47684 9740463
-0.0553629 -0.0341477 3.48122 12174023
-0.0543789 -0.0336199 3.47817 12765906
-0.053127 -0.0350865 3.48445 9213090
-0.0519813 -0.0342539 3.47939 10070714
-0.0552194 -0.0341561 3.48207 9674926
-0.0549943 -0.0336285 3.47921 12371918
-0.0538414 -0.0336377 3.47821 9739177
-0.055089 -0.0333327 3.4778 12306125
-0.0544776 -0.033419 3.47777 10923699
-0.0543701 -0.033417 3.47764 11252670
-0.0541437 -0.0334208 3.4775 14015198
-0.0536336 -0.0333103 3.47643 8293276
-0.0555052 -0.0334624 3.47895 11517387
-0.0546667 -0.0331859 3.47667 12897491
-0.0517114 -0.0342326 3.47984 4343888
-0.0491992 -0.0962968 3.80264 12963029
-0.0542464 -0.0333206 3.47718 10201520
-0.0534407 -0.0335287 3.47779 7899293
-0.0538763 -0.0349273 3.48582 13423319
-0.0542398 -0.0334715 3.47832 15002354
-0.0535376 -0.0335335 3.47779 13358814
-0.0533599 -0.0334085 3.47711 11055292
-0.0515686 -0.0343023 3.4804 6582137
-0.0554234 -0.0333116 3.4791 11385280
-0.054416 -0.0330027 3.47646 6383220
-0.0541291 -0.0332113 3.47739 10858683
-0.0533872 -0.0335411 3.47859 11778497
-0.0552094 -0.0333851 3.47957 10200247
-0.0549294 -0.0333432 3.47907 12109264
-0.0548247 -0.0331899 3.47813 13292765
-0.0546358 -0.0331617 3.4777 10595252
-0.0537971 -0.033146 3.4769 11056323
-0.0538201 -0.0333384 3.47785 8818847
-0.0536146 -0.0331322 3.47678 11317430
-0.0533952 -0.0331844 3.477 9411754
-0.0522221 -0.0336052 3.47854 9345448
-0.052308 -0.0335613 3.47814 6714503
-0.054431 -0.033184 3.47808 8095125
-0.0533931 -0.0332214 3.47739 10003117
-0.0519199 -0.0336075 3.47861 6783883
-0.0548067 -0.0321743 3.47256 11647683
-0.0520548 -0.0339396 3.48056 9936807
-0.0555404 -0.0347216 3.4891 9477544
-0.055264 -0.0333886 3.48062 8885156
-0.0541367 -0.0330404 3.47737 9542312
-0.0529952 -0.0332857 3.47778 9805742
-0.0555178 -0.032993 3.47853 7371142
-0.0545767 -0.0328894 3.47705 9082789
-0.0544226 -0.0330675 3.47799 7108744
-0.054323 -0.0330468 3.4778 10595252
-0.0476653 -0.0367978 3.49454 9476776
0.0654 -0.163516 4.19879 9610160
-0.0544274 -0.0328976 3.47702 10463667
-0.0539323 -0.0329653 3.47708 13227748
-0.0525588 -0.033585 3.47964 8623007
-0.0526515 -0.0333784 3.47843 9935265
-0.0521675 -0.0333114 3.47784 8030356
-0.0541818 -0.0329012 3.47712 10332084
-0.0536728 -0.0329952 3.47732 11648972
-0.0536586 -0.0329145 3.47665 9543078
-0.049789 -0.0346253 3.48397 4731431
-0.0553785 -0.0330091 3.47932 11318720
-0.0555125 -0.0320553 3.47302 10529204
-0.0556512 -0.0313102 3.46822 11513783
-0.0544809 -0.0341913 3.48699 12569300
-0.0537827 -0.0327942 3.47675 15002608
-0.0532994 -0.0329001 3.47669 11779785
-0.0546249 -0.0331063 3.48003 6977662
-0.054311 -0.0327525 3.47726 8819363
-0.054953 -0.0327571 3.47813 5526623
-0.0536396 -0.0330108 3.47817 8424601
-0.0547443 -0.0327387 3.47796 12174799
-0.0540969 -0.0326607 3.47646 12041930
-0.0536222 -0.0326906 3.47642 10926020
-0.0536964 -0.0327469 3.47748 10200495
-0.0528967 -0.0330891 3.47855 8226969
-0.0520928 -0.0332242 3.47823 7767959
-0.0548256 -0.0326823 3.47797 6449779
-0.0547844 -0.032684 3.47794 10268860
-0.0537451 -0.0326077 3.47619 12437714
-0.0522498 -0.0330058 3.47741 9479609
-0.0552034 -0.0323549 3.47626 6385022
-0.053909 -0.032726 3.47707 11582149
-0.0534507 -0.0326534 3.47631 10926272
-0.0503013 -0.0337306 3.48524 7503756
-0.0542155 -0.0325769 3.47681 15661050
-0.0533488 -0.032853 3.47787 10136248
-0.0525424 -0.0329294 3.47763 8622236
-0.0525273 -0.0328884 3.47727 10529973
-0.0557648 -0.0327288 3.48078 7370631
-0.0533123 -0.0326652 3.47682 7964054
5.48082 -3.33331 24.5173 7569293
-0.0521551 -0.033028 3.47849 8490392
-0.0502678 -0.0338009 3.48257 4475462
0.475641 -1.44455 14.7975 9016230
-0.0546356 -0.0323804 3.4762 5990260
1.6187 -1.25328 11.7777 9476773
-0.0515885 -0.0335946 3.48343 5529972
-0.055295 -0.0325827 3.47983 2764605
-0.0556562 -0.032826 3.48339 8294045
-0.0555397 -0.0331625 3.48621 10925251
-0.0544142 -0.0324671 3.47783 3358279
-0.846678 0.478399 -0.277808 6714241
-0.0500794 -0.0334863 3.48142 8222575
-0.0488254 -0.0341588 3.48596 7766401
-0.0549041 -0.0326535 3.48093 10662587
-0.0553961 -0.0316687 3.47197 3884108
-0.0539809 -0.0323219 3.47615 9807279
-0.0555108 -0.031273 3.46839 4214365
-0.0523918 -0.0329783 3.4787 9741228
-0.0553817 -0.0323953 3.47969 4013637
-0.0544705 -0.0322377 3.47673 13949925
-0.0518036 -0.0326706 3.47834 6319735
-0.0537047 -0.0324738 3.47845 14738407
-0.0505102 -0.033175 3.48039 10334904
-0.0556269 -0.0312367 3.46832 8885920
-0.0546181 -0.0320774 3.47623 10266024
-0.0542206 -0.032364 3.47812 11452362
-0.0541643 -0.0322461 3.47715 12767187
-0.053628 -0.0321647 3.47503 2505293
-0.0557045 -0.0315685 3.47193 9148835
-0.0526541 -0.0324422 3.47665 12371918
-0.0520445 -0.0326432 3.47777 9742511
-0.0547954 -0.0322534 3.47837 5923691
-0.0526802 -0.0326736 3.4797 2899026
-0.0556332 -0.0312165 3.46828 6581111
-0.0545895 -0.0321893 3.4779 5591896
-0.0530082 -0.0323562 3.47691 3821927
-0.0523673 -0.0324741 3.47705 12175052
-0.0558842 -0.0329801 3.48917 7958900
-0.0545849 -0.0326917 3.48548 2961210
-0.0545664 -0.0320532 3.47645 10725807
-0.0538168 -0.0321998 3.47679 6975351
-0.0546001 -0.0320104 3.47503 3356736
-0.0514973 -0.0328895 3.48027 5396321
-0.055145 -0.0316305 3.47245 4343625
-0.0517805 -0.032603 3.47813 4804691
-0.051455 -0.0327085 3.47883 3487542
0.0388726 -0.224552 5.61024 4738646
-0.0538594 -0.0322471 3.47777 13753057
-0.0521783 -0.0324925 3.47723 6386812
-0.0558041 -0.0325986 3.48602 9676210
0.0141074 -0.0781783 3.91853 14147818
-0.0531703 -0.0322604 3.47705 5199967
-0.0385535 -0.0923049 4.20775 11846864
-0.0551035 -0.0321261 3.47924 3160907
-0.0545199 -0.0320528 3.47732 10727088
-0.0521355 -0.032462 3.47831 6251626
-0.0519422 -0.0324755 3.47803 9609643
-0.0552234 -0.0315329 3.47199 5789014
-0.0546445 -0.0317599 3.47355 13225943
0.164577 -0.142104 4.49703 3092791
-0.0547007 -0.0321262 3.47909 11647678
-0.0537552 -0.0320844 3.47673 9673641
-0.0553884 -0.0313256 3.47029 11911112
-0.0531764 -0.0321623 3.47639 3555916
-0.0343054 -0.0874665 4.19565 7172733
-0.0547455 -0.032095 3.47909 12963281
-0.0536944 -0.032236 3.47922 12963802
-0.0532212 -0.0321392 3.47659 5988452
-0.05249 -0.0322587 3.47692 7371655
-0.0543321 -0.0319318 3.47636 11121597
-0.0539391 -0.0319282 3.47573 10661303
-0.0538742 -0.0318927 3.4747 5922406
0.265138 -0.154035 4.60395 6580595
-0.0498311 -0.0330193 3.48302 6451053
-0.0276 -0.0899577 4.28494 6777200
-0.0543851 -0.0316929 3.47331 8291725
-0.051447 -0.0325012 3.47857 6649219
-0.0498305 -0.032775 3.48162 4410958
-0.0529535 -0.0321283 3.47681 3423045
-0.053953 -0.031705 3.47301 3751500
-0.0557673 -0.0322123 3.48545 5268598
-0.055743 -0.0319002 3.48039 9872302
-0.0543508 -0.0318435 3.47629 11845066
-0.0536197 -0.0320292 3.47739 8028813
-0.0519334 -0.032313 3.47814 7502723
-0.0548149 -0.0318877 3.47858 6252145
-0.0545215 -0.0320696 3.4812 11714248
-0.0542876 -0.0317637 3.47603 12634835
-0.0543002 -0.0318311 3.4763 11256013
-0.0551227 -0.0314647 3.47256 11846350
-0.0495898 -0.0328306 3.48269 7902107
-0.050882 -0.0323693 3.479 6908523
-0.0555858 -0.0319501 3.48306 7109517
-0.053706 -0.0320055 3.47914 13291739
-0.0532782 -0.0319497 3.47688 5660524
-0.0557745 -0.0316473 3.47816 8748933
-0.055584 -0.0315365 3.47576 8293019
-0.0551053 -0.0317046 3.47851 11714505
-0.0547445 -0.0316908 3.47669 9676470
-0.0515899 -0.032255 3.47853 6645606
-0.0547233 -0.0317215 3.4778 13885156
-0.0544815 -0.0317428 3.47764 10595513
-0.0538902 -0.0317607 3.47656 10464439
-0.0538065 -0.0317669 3.47649 10791606
0.0993444 -0.0739426 3.90594 4740441
-0.0552316 -0.0316989 3.47993 11516616
-0.0547136 -0.0316171 3.47669 11715021
-0.0546364 -0.031486 3.47181 8687255
-0.0526718 -0.0319255 3.47689 8292238
-0.0522013 -0.0320715 3.47848 6316389
-0.0512475 -0.032225 3.47912 9677478
-0.0541733 -0.0315825 3.47466 10398647
-0.0543411 -0.0316153 3.47529 13095127
-0.0546846 -0.0314667 3.47389 14147045
-0.0541733 -0.0315825 3.47466 10398647
-0.0515035 -0.0320389 3.47775 6779510
-0.402109 0.0636553 2.05591 8687507
-0.0545405 -0.0316002 3.4775 13754087
-0.0543815 -0.0315932 3.47676 14936817
-0.0544233 -0.0315623 3.4761 12502736
-0.0535395 -0.0317893 3.47883 10133165
-0.0499584 -0.0324688 3.48322 4477011
-0.0553942 -0.0314465 3.47964 10528946
-0.0542304 -0.0315383 3.47534 12042955
-0.0507283 -0.0337655 3.53126 11451336
-0.0545087 -0.0315227 3.47577 12635094
-0.051635 -0.0319952 3.47791 7765628
-0.0507778 -0.0321473 3.47945 8166325
-0.0558116 -0.0313818 3.47944 5724004
-0.0557813 -0.0314919 3.48248 7438994
1.49188 -0.417392 8.67255 12832729
-0.0498469 -0.0323836 3.48625 12898264
-0.0557601 -0.0314246 3.48031 5660268
-0.0555642 -0.0311201 3.46913 9609647
-0.0541511 -0.0315386 3.47639 14279141
-0.0528842 -0.0316672 3.47493 9477798
-0.0529861 -0.0321846 3.49837 11253698
-0.0544129 -0.0314248 3.47587 12963800
-0.0543237 -0.0314493 3.47593 11779011
-0.0532253 -0.0316168 3.47619 11187907
-0.052718 -0.0316941 3.47671 9609391
-0.0526768 -0.0316969 3.47664 11384777
-0.0519825 -0.0318304 3.47846 11845575
-0.0494909 -0.032243 3.48154 6177330
-0.0543747 -0.0314603 3.47737 12569563
-0.0529545 -0.0316338 3.47745 8160659
-0.0542094 -0.0314008 3.4758 10725811
-0.0511575 -0.0318979 3.47856 4803915
-0.0468272 -0.0326585 3.48981 10993353
-0.0555957 -0.0312697 3.48072 8292241
-0.0533871 -0.0314979 3.47556 8950173
-0.0513864 -0.031808 3.47866 8686733
-0.0551129 -0.0312915 3.4794 9805738
-0.0526929 -0.0315851 3.47654 12569300
-0.0514407 -0.0318124 3.47804 4015431
-0.0539657 -0.0313887 3.47413 10003630
-0.0528756 -0.0315483 3.47602 9148328
-0.050987 -0.0318092 3.48163 8950949
-0.0524316 -0.0315663 3.47674 9938350
-0.0523343 -0.0315041 3.47611 4936023
-0.0537827 -0.0313825 3.47616 11582149
-0.0546029 -0.0312453 3.47659 10990787
-0.0555022 -0.0310547 3.46763 9804193
-0.0548498 -0.0312184 3.48192 10661048
-0.0542148 -0.0313571 3.48867 12043729
-0.0543564 -0.0312545 3.47588 14739175
-0.0541331 -0.0312719 3.47562 12569816
-0.0557337 -0.0310826 3.48636 8950172
-0.0547662 -0.0311575 3.47478 10661822
-0.0539274 -0.0312789 3.47608 5331564
-0.0527586 -0.0314238 3.47609 6319746
0.0974101 -0.0459509 3.84608 4603709
-0.054629 -0.031159 3.47726 8227479
-0.0537415 -0.0312501 3.47665 5067356
-0.0534525 -0.0313043 3.47577 10990781
-0.0550258 -0.0310435 3.47828 12635091
-0.0541693 -0.0312329 3.47516 9806001
-0.0539316 -0.0312195 3.47518 9214118
-0.0547343 -0.0311345 3.4708 10265776
-0.0554345 -0.0309554 3.48039 10792116
-0.0445864 -0.0316728 3.73369 10859456
-0.0553044 -0.0310005 3.47784 10661047
-0.0540441 -0.0311591 3.47502 6383989
-0.0539062 -0.0311654 3.47534 4277589
-0.0528693 -0.031308 3.47652 11055545
-0.0535314 -0.031264 3.47377 7963535
0.153407 -0.0494822 4.11634 6055530
-0.0533146 -0.0262151 3.82868 9411231
-0.0548448 -0.0309822 3.47887 8819365
-0.0548121 -0.0310042 3.47692 7437965
-0.0503143 -0.0315339 3.48144 8095629
-0.0550537 -0.0309442 3.47641 10991558
-0.052482 -0.0310411 3.49301 6319742
-0.0529766 -0.0312408 3.4767 7700618
-0.0539329 -0.031044 3.47885 8094343
-0.0541566 -0.0310884 3.47468 5989489
-0.0527979 -0.031233 3.47632 6911874
-0.0535173 -0.0312116 3.47349 5990260
0.284711 -0.0635434 4.5341 8359315
0.101422 -0.0463418 3.85603 4603709
-0.053769 -0.0310892 3.47581 3226448
-0.0526893 -0.0313086 3.47516 8162709
-0.0552822 -0.0308237 3.47797 10330020
-0.0535017 -0.0311379 3.47615 2830655
-0.0556326 -0.0308447 3.47434 9278369
-0.0549058 -0.0309341 3.47476 6517126
-0.0509835 -0.0313058 3.47871 7764603
-0.0556731 -0.0306423 3.48155 9673634
-0.056099 -0.0303472 3.48594 5070701
-0.0528854 -0.0310975 3.47631 8817298
-0.052061 -0.0311665 3.47682 12373197
-0.0559476 -0.0302737 3.48799 7766929
-0.0546151 -0.0306815 3.4811 7964566
-0.0534621 -0.0310624 3.47539 7503240
-0.0553037 -0.0306801 3.47765 11253956
-0.0534275 -0.0309997 3.47569 5989230
-0.0539051 -0.031006 3.4735 7700875
-0.0521506 -0.031162 3.4762 5066842
-0.0513159 -0.0311987 3.47816 8424335
-0.0289679 -0.0327199 3.52948 10915456
-0.0545343 -0.0307818 3.4768 4018279
-0.0548694 -0.030661 3.47853 12174543
-0.05459 -0.0308615 3.47415 4546681
-0.0540939 -0.0308837 3.4748 1646125
0.180418 -0.022435 4.47308 7568519
-0.0554084 -0.0304591 3.4799 6449526
-0.054669 -0.0306727 3.4784 11648971
-0.0533485 -0.0309149 3.47623 9412013
-0.0527535 -0.0309989 3.47635 5791851
-0.0550724 -0.030569 3.4778 11583435
-0.00922739 -0.0227027 3.79077 2500922
0.149125 -0.0152826 4.45308 9215404
-0.0525433 -0.0308476 3.47832 6910589
-0.0530084 -0.0309168 3.47629 5002076
-0.0548829 -0.0305646 3.47817 13489888
-0.0545136 -0.0308787 3.47285 3228504
-0.0553825 -0.0305591 3.47701 9411755
-0.052759 -0.0308284 3.47895 10005174
-0.0562853 -0.0294584 3.49345 10465981
-0.0551285 -0.03053 3.47734 9478059
-0.0545111 -0.0305428 3.47813 12108756
-0.0553372 -0.030283 3.48085 11713738
-0.0543804 -0.0304198 3.48166 11056837
-0.0534192 -0.0308203 3.47635 11057347
-0.0533487 -0.030805 3.47601 7372432
-0.0556927 -0.0304242 3.4769 8620684
-0.0534586 -0.0307726 3.47577 11057609
-0.0532305 -0.0307526 3.47636 7175045
-0.0531446 -0.0308496 3.47513 5264738
-0.05212 -0.0309348 3.47578 8688537
-0.0549871 -0.0304386 3.47729 12634835
-0.0547791 -0.0307514 3.47253 2698038
-0.0535032 -0.0307197 3.47569 11583434
-0.053121 -0.0307197 3.47622 8553357
-0.0528567 -0.0307198 3.47671 4738648
-0.0515222 -0.0308095 3.47742 6844787
-0.0643648 -0.00407261 3.84942 9148834
-0.0555669 -0.0296575 3.48576 8818323
-0.0548227 -0.0303234 3.47819 11648717
-0.0554176 -0.0306614 3.47227 9543601
-0.0553724 -0.0301863 3.47901 9674925
0.407188 0.414498 10.7331 10134967
2.05593 0.329235 12.4817 7897223
-0.0550887 -0.030711 3.47169 9013905
-0.0520416 -0.0306915 3.4773 2829365
-0.0512061 -0.0307735 3.47778 4212811
-0.0508746 -0.0307695 3.47848 4538689
-0.0506853 -0.030805 3.47836 8887455
-0.0560096 -0.0295055 3.48695 9413294
-0.0553681 -0.0300028 3.48054 7898000
-0.0554997 -0.0299663 3.48049 10266805
-0.0552733 -0.0300888 3.4792 7832728
-0.053344 -0.030556 3.47629 10924989
-0.0533113 -0.0305749 3.47611 8225934
-0.0554983 -0.0309576 3.46756 3881278
-0.0512037 -0.0306969 3.47807 8492706
-0.0559162 -0.0294422 3.48627 4280935
-0.0522247 -0.0306619 3.47647 4938081
-0.0551736 -0.0302945 3.47634 10924992
-0.0541313 -0.0305218 3.4752 5460567
-0.0500177 -0.0305994 3.48058 6319215
-0.0556019 -0.0288431 3.49296 7765384
-0.0518494 -0.0299425 3.48655 9345186
-0.0560169 -0.0293264 3.48631 10794694
-0.052616 -0.0307125 3.47474 7042941
-0.0506216 -0.0305836 3.47895 4673619
-0.0538945 -0.0298405 3.4824 8556704
-0.0548819 -0.0300937 3.47795 7305869
-0.0548622 -0.0302935 3.4758 10464959
-0.0531913 -0.0303994 3.47671 9015705
-0.055042 -0.0297294 3.48157 11977418
-0.0526018 -0.0299104 3.48237 3949907
0.860064 0.0752286 5.82918 6713980
-0.0509288 -0.0305064 3.47822 5266280
-0.0532529 -0.0307711 3.47206 6913163
-0.0546503 -0.030085 3.47778 10992073
-0.0550207 -0.0301092 3.4766 8424346
-0.0547405 -0.0302567 3.47569 6517124
-0.0547318 -0.0303938 3.47422 4149350
-0.0533855 -0.0303845 3.47598 9607584
-0.0508349 -0.0305127 3.47797 6253947
-0.0559918 -0.0288489 3.48853 12965860
-0.0551506 -0.0299749 3.47769 7239302
-0.0522943 -0.0300816 3.48001 9344672
-0.0536351 -0.0305751 3.47365 7370366
-0.0554016 -0.0298166 3.47881 10990014
-0.0544212 -0.0296735 3.48089 7504789
-0.0545099 -0.0302252 3.47558 5987683
-0.0543995 -0.0301076 3.47591 12238535
-0.0562825 -0.0281081 3.49162 4479341
-0.0548261 -0.0300202 3.47617 3489616
-0.0544153 -0.0301024 3.47641 14017258
-0.0556331 -0.0299502 3.47589 9411754
-0.054612 -0.0296436 3.47964 7767194
-0.0479577 -0.0300284 3.48284 4865857
-0.0532026 -0.0301326 3.47645 4212309
-0.0433006 -0.0289792 3.49491 6848401
-0.0513738 -0.0303313 3.47612 5792363
-0.0548822 -0.0295468 3.47964 5726322
-0.0547209 -0.0299029 3.47686 9214887
-0.0559606 -0.0284357 3.48712 4082780
-0.0557527 -0.0287802 3.48449 5003624
-0.0553271 -0.0292788 3.48079 10002607
-0.0551539 -0.0294766 3.47966 11779793
-0.0545405 -0.0292423 3.4824 7370626
-0.0480173 -0.0298729 3.48289 8161679
-0.0562963 -0.0286518 3.48479 6782613
-0.0547061 -0.029751 3.47746 12372183
-0.0543214 -0.0299914 3.47607 9148071
-0.0511464 -0.0300703 3.47851 7239035
0.516632 0.0215649 4.40173 7562845
-0.0555943 -0.0306759 3.46905 5791857
-0.0419332 -0.0287108 3.49629 6382177
0.00410534 -0.0209617 3.59644 6382177
0.0116596 -0.0211402 3.60343 6448997
-0.0559392 -0.0277973 3.49032 4542047
-0.0550344 -0.0296164 3.47745 10991040
-0.054094 -0.0295157 3.47871 4018284
-0.0505302 -0.0304496 3.47516 11115660
-0.0520723 -0.0302142 3.47543 5923947
-0.0508539 -0.0301545 3.47725 3484201
0.281576 0.0109747 4.05675 8941402
-0.0541922 -0.030803 3.46926 7038566
-0.0559225 -0.0281517 3.48673 3226696
-0.0554401 -0.0290592 3.48079 9806518
-0.00593865 0.0366302 3.98973 9082789
-0.0542891 -0.0297749 3.47633 5071228
-0.049496 -0.0294727 3.48225 5858673
0.0153223 -0.0220509 3.58576 7432805
-0.0556002 -0.0282994 3.48505 10860743
-0.0552506 -0.029035 3.48056 8489369
0.150952 -0.00830009 3.79293 8419955
-0.0557631 -0.0280864 3.48686 3555921
-0.0550424 -0.0294808 3.47767 8819617
-0.0543609 -0.0308064 3.46897 5524291
-0.056041 -0.0283737 3.48415 7835296
-0.0546764 -0.0294155 3.47803 4741742
0.269132 0.03017 4.14366 5263186
0.22381 0.00225757 3.91016 8618879
-0.0519973 -0.0303151 3.47398 6974310
0.130674 -0.00428586 3.78522 7893617
-0.0437935 -0.0293614 3.48637 5853260
-0.0549343 -0.0292768 3.47829 9938095
-0.0443509 -0.0286895 3.48985 7962497
-0.00358366 -0.0214937 3.56544 7959147
-0.0549343 -0.0292768 3.47829 9938095
-0.0545295 -0.0293613 3.47784 9410981
-0.056001 -0.0273888 3.48912 4673895
-0.0547294 -0.029619 3.4759 10267579
0.0880664 -0.00122421 3.76031 7831164
-0.0520119 -0.0303791 3.47324 6511963
-0.0466445 -0.0298261 3.48022 7824976
-0.0544763 -0.0289986 3.47996 8754857
0.359418 0.0357166 4.1836 6249047
1.24074 0.156223 5.55723 8687250
-0.0444281 -0.0293755 3.48454 6114629
-0.0547294 -0.029619 3.4759 10267579
-0.0560332 -0.0283368 3.48283 6651022
-0.0555707 -0.0287766 3.48021 12109266
-0.0546762 -0.0293253 3.47743 9676472
2.12786 0.353287 7.38146 8356474
0.0248083 0.0856197 4.22173 10728643
-0.0542891 -0.0291527 3.47852 13225942
0.115923 0.00192862 3.77993 8685187
-0.0465766 -0.0293018 3.48281 5394249
0.228993 0.0182678 3.95534 8686218
0.186108 0.0104667 3.87935 8621200
-0.0561407 -0.0273564 3.48792 9875387
-0.0528443 -0.0293589 3.47825 4146518
-0.0546142 -0.0292096 3.4777 14016748
-0.0523887 -0.0298502 3.47574 3488066
0.238152 0.0154575 3.93664 6121068
-0.0556057 -0.0281212 3.48329 4606555
-0.054751 -0.0302432 3.47152 4870496
0.157935 0.0163078 3.87888 7238773
0.0761688 -0.00277041 3.71723 6974056
-0.0544096 -0.0307709 3.46869 6971731
-0.0447623 -0.0282841 3.48896 6580067
-0.0556651 -0.027176 3.48811 3686228
-0.0533536 -0.0296298 3.47589 5133927
-0.0501045 -0.0299219 3.47681 5919822
-0.0555789 -0.0271585 3.48787 6187132
-0.0442542 -0.0283891 3.48804 6186591
-0.0431226 -0.0286936 3.48715 4998982
-0.0560749 -0.0252546 3.4982 6452099
-0.0555577 -0.028459 3.48067 10529724
-0.0527788 -0.0273838 3.48845 11644079
-0.0527378 -0.0297406 3.4752 4079429
0.205129 0.0176292 3.89377 8359579
-0.0523915 -0.029576 3.47625 2960434
13.2038 2.28587 24.1132 9470584
-0.0554715 -0.0291054 3.47699 4278873
-0.0548451 -0.0288658 3.47855 10729161
-0.0521158 -0.0295006 3.47678 11056569
-0.0532796 -0.0301664 3.47227 7635599
0.227513 0.0292092 3.9655 6841440
0.158294 0.0129479 3.83308 8949130
-0.0441633 -0.0286243 3.48607 10067614
-0.0549407 -0.0294438 3.47534 11714252
-0.0527357 -0.0293856 3.47707 5593444
-0.0505994 -0.0293766 3.4785 6054243
0.164421 0.0159831 3.84773 5328202
-0.152464 0.201058 4.63984 9608341
-0.0551755 -0.0283132 3.48107 9805223
-0.0549935 -0.0290991 3.47706 7700116
-0.0440494 -0.0280279 3.4891 6580332
-0.0435401 -0.0281916 3.48831 4735294
0.410407 0.0569488 4.2278 7174526
-0.0509366 -0.0293834 3.47762 6712689
-0.0441985 -0.02848 3.48612 7566712
-0.0472519 -0.0292736 3.48022 5989482
-0.0568378 -0.00738998 3.58802 6584198
0.122581 0.0104141 3.78255 7766141
-0.056148 -0.029574 3.4737 4805466
-0.0545157 -0.0292337 3.47628 13951467
-0.0499931 -0.0295477 3.47707 4603453
-0.0522331 -0.0294648 3.47633 4607577
-0.0548819 -0.0295873 3.47402 13425124
0.0017985 -0.017062 3.56662 7302505
-0.0516691 -0.0293841 3.47677 8489360
-0.0413576 -0.0280007 3.48894 9211017
-0.0462431 -0.0290785 3.48099 11709592
-0.101106 0.106331 4.11061 5793910
-0.0555858 -0.0273626 3.48444 11390178
-0.0548863 -0.0286849 3.47829 7239051
-0.0542913 -0.0291645 3.47625 12043215
-0.0543773 -0.0294735 3.4747 13030626
-0.0468365 -0.0285973 3.48293 4405817
-0.0570057 -0.0266385 3.48718 3223864
-0.054229 -0.0293785 3.4751 11318470
-0.0531666 -0.0293356 3.47634 5593187
-0.0513432 -0.0293059 3.47696 3883083
-0.0552007 -0.0285065 3.47884 6583687
-0.0538538 -0.0248755 3.49705 9674928
-0.0533219 -0.0279029 3.48244 11977678
-0.0512082 -0.0296527 3.47498 15393748
-0.0563923 -0.0258953 3.49023 9417410
-0.0537479 -0.0296496 3.47385 4672605
-0.036052 -0.026254 3.49889 7305602
-0.052858 -0.0303027 3.47134 8423563
-0.0557482 -0.0279758 3.48069 6977155
-0.0553706 -0.026076 3.48969 7309214
-0.0542785 -0.0293161 3.47507 10727362
-0.0526111 -0.0287958 3.47818 6120817
-0.0525218 -0.0294853 3.47533 8095383
-0.0542661 -0.0304752 3.4696 8223867
-0.0560632 -0.0284227 3.47827 7441829
-0.0552747 -0.0274671 3.48322 8887216
-0.055098 -0.0289818 3.47628 7900062
-0.053943 -0.0285616 3.47855 10727612
-0.0498081 -0.0289628 3.4789 7438999
-0.0514392 -0.0296876 3.47462 4471350
-0.0513627 -0.0297455 3.47438 10259843
-0.0515814 -0.0299438 3.47332 9804711
-0.117761 0.180951 4.41228 8296102
0.354774 0.239465 4.89753 10004141
-0.0517949 -0.0296098 3.47458 4670793
-0.0438362 -0.0283335 3.48433 5263953
-0.0543772 -0.0295709 3.47377 11714510
-0.0522197 -0.0295562 3.4747 9611964
-0.0508427 -0.0293233 3.47637 8223362
-0.0483141 -0.0286072 3.48088 8093567
-0.0985955 0.0764735 3.93279 7109509
-0.0548896 -0.0268282 3.48597 5530229
-0.054583 -0.0285845 3.4779 10926798
-0.054611 -0.0290406 3.47579 9280428
-0.0647834 0.066969 3.90332 2964559
-0.0547107 -0.0285421 3.47793 10531009
-0.0504855 -0.027819 3.48285 5261154
-0.0517916 -0.028889 3.47779 11122107
-0.053141 -0.0298375 3.47293 6120557
-0.0560751 -0.0276609 3.48117 7045267
-0.0550846 -0.0290224 3.47555 7702683
-0.0545798 -0.0287379 3.477 11056839
-0.0521501 -0.029167 3.47612 8818075
-0.0530057 -0.0297762 3.47313 6185334
-0.0525266 -0.029651 3.47389 4541277
-0.0530509 -0.0299566 3.47217 8950437
-0.0543128 -0.0290818 3.47537 9544367
-0.0541899 -0.0290864 3.47542 10727615
-0.0528518 -0.0297139 3.47334 5662072
-0.0548013 -0.0296874 3.47257 10135739
0.743832 0.369547 5.55495 9143690
-0.0520708 -0.0298366 3.47309 10787483
-0.0546139 -0.0288394 3.4762 10333885
-0.0537937 -0.0286859 3.47722 7371670
-0.0526352 -0.0292468 3.47517 6646128
-0.0525254 -0.030086 3.47185 11448494
-0.0526512 -0.0290633 3.47592 13339554
-0.0544592 -0.029018 3.47549 10004666
-0.0536372 -0.0293088 3.47446 10668996
-0.051697 -0.0284383 3.47857 4408402
-0.0547897 -0.0302529 3.46987 8151895
-0.0544413 -0.0302639 3.46998 4540758
-0.0551887 -0.0300788 3.47041 7435666
-0.0548106 -0.0301298 3.4703 7638153
-0.0549608 -0.030428 3.469 10855597
-0.0549954 -0.0303429 3.46929 12507373
3.40576 1.69966 11.5916 5328748
-0.00788412 0.0951586 3.97739 9342610
-0.0538205 -0.0290678 3.47439 6247259
-0.053381 -0.0288986 3.4751 10067363
-0.058647 -0.0261583 3.48345 5065543
-0.0538174 -0.030305 3.46974 4733244
-0.0555005 -0.0317243 3.46842 2499108
-0.0537742 -0.0354221 3.47923 2958886
0.349379 -0.633322 5.39274 6506550
-0.055018 -0.0354477 3.48373 9803421
-0.0546766 -0.0352138 3.48299 10924739
-0.0539711 -0.033631 3.47758 10198695
-0.000585263 -0.191065 4.2172 9607848
-0.0508507 -0.0365721 3.48957 12042699
-0.0535519 -0.0333942 3.47685 8689064
-0.0506676 -0.0349253 3.4828 8812140
-0.0540796 -0.0334902 3.47857 13029594
-0.0538969 -0.0332918 3.47736 7766675
-0.0531602 -0.0332132 3.47653 8095129
-0.0546588 -0.0331986 3.47817 10266546
-0.055148 -0.0333453 3.47967 11385286
-0.0550055 -0.0333475 3.47957 10331570
-0.053799 -0.0326607 3.4745 8422021
-0.0545937 -0.0321129 3.47191 9805739
-0.0556611 -0.0332426 3.48097 9872046
-0.0553848 -0.0335526 3.48216 4212050
-0.0545043 -0.0327973 3.47683 7832974
-0.0536396 -0.0330108 3.47817 8424601
-0.055457 -0.0332284 3.48179 5661299
-0.0544882 -0.0329573 3.47922 10333618
-0.0550715 -0.0314936 3.46922 10793660
-0.0556597 -0.0317306 3.47185 9806256
-0.0545791 -0.0323763 3.4752 12109001
-0.0550488 -0.032893 3.48036 6056825
-0.0541108 -0.0326157 3.47708 15265780
-0.0539101 -0.0324679 3.47654 4015185
-0.0556554 -0.0311264 3.46723 6249825
-0.0536172 -0.0323951 3.47594 2505041
1.79074 -1.13183 11.5491 2637657
-0.0539817 -0.0322341 3.47664 12963795
-0.0533255 -0.03251 3.47857 2832972
-0.0526976 -0.0323958 3.47657 3227214
-0.0542476 -0.0315745 3.4713 5726827
-0.0529465 -0.0319244 3.47458 6055787
-0.0504642 -0.0323514 3.47988 8756645
-0.0530626 -0.0321507 3.48535 15068402
0.148459 -0.0908967 4.20938 8356484
2.39301 -0.766248 14.3511 8817808
-0.0555061 -0.0311389 3.46871 10793149
-0.0510023 -0.0321027 3.47912 6516850
-0.055585 -0.0313429 3.47989 9739943
-0.0551668 -0.0312638 3.47468 11912140
-0.0542563 -0.0313723 3.47522 10332856
-0.0553567 -0.0312491 3.47936 8555423
-0.0525732 -0.0316093 3.47613 9215397
-0.0512998 -0.0318208 3.47876 9017503
-0.0533962 -0.0313749 3.47653 12569557
-0.053183 -0.0313976 3.47627 12173511
-0.0535653 -0.0312075 3.47641 8423313
-0.0517967 -0.0313975 3.48113 10003885
-0.0552282 -0.0308711 3.4791 8950689
-0.0549932 -0.0310568 3.46884 9673634
-0.0552729 -0.0306956 3.47871 11713994
-0.0556891 -0.0305124 3.48123 7764869
-0.053482 -0.03104 3.47606 4147286
0.0346354 -0.025658 3.9451 2701645
-0.0548501 -0.0305743 3.4785 12502478
-0.056642 -0.0140447 3.78701 8751760
-0.0553808 -0.0304212 3.47824 11385542
-0.0548871 -0.0303119 3.47739 12963802
-0.0547623 -0.0303813 3.47648 13030112
-0.0545883 -0.0301589 3.47782 11649748
-0.0546216 -0.0302744 3.47658 7372694
-0.0531306 -0.0303644 3.47669 9935780
-0.0512045 -0.0304781 3.47738 2959149
-0.0562022 -0.0286399 3.48796 5665419
-0.055469 -0.0300918 3.47538 10200754
-0.054641 -0.0297284 3.47972 5266547
-0.0551799 -0.0294961 3.4797 10530239
-0.433171 -0.338264 0.700453 8752279
-0.0513243 -0.0301991 3.47722 3552051
-0.055422 -0.0306588 3.46934 8162978
-0.0566046 -0.0268553 3.49491 3027008
-0.0549082 -0.0296665 3.47605 6516868
-0.0556239 -0.0289777 3.47997 10991815
-0.0514379 -0.0298984 3.47695 7834267
0.0285147 -0.0175103 3.61825 13016945
0.159215 0.0135519 3.89405 7040364
-0.0475534 -0.0286971 3.48553 4278096
-0.0558 -0.0284317 3.48131 7437449
-0.0550042 -0.0288858 3.47872 11844543
3.70653 0.751266 9.98386 7238255
-0.0444429 -0.0274188 3.49167 5597045
-0.156094 0.219443 4.72061 4277831
-0.0555246 -0.026984 3.48714 3621978
-0.0549979 -0.0286934 3.47839 10267067
-0.0539052 -0.0305075 3.46988 5066572
-0.197326 0.271843 4.84168 7362362
-0.0542761 -0.0294048 3.47491 11714768
-0.14775 -0.762002 -0.051561 6387596
-0.0547751 -0.028584 3.47805 11517386
-0.0520747 -0.0289868 3.47706 8161433
-0.0551913 -0.0297274 3.47239 11320779
0.301008 0.0925821 4.15775 4536921
-0.0523021 -0.0298492 3.47242 9931916
-0.0542234 -0.0301854 3.47006 3355707
-0.0556806 -0.0306475 3.46773 2169637
-0.0548874 -0.0360458 3.48193 4466974
-0.0545087 -0.0343088 3.47833 14017000
-0.0551938 -0.0345042 3.48011 9279133
-0.69263 0.965253 -0.30904 10727100
-0.0546062 -0.0334038 3.47645 13883872
-0.0536848 -0.0317962 3.47343 6318965
-0.0554688 -0.0315059 3.47758 12043728
-0.055711 -0.0313144 3.48232 11120051
-0.0555131 -0.0310731 3.46758 9478831
-0.0563508 -0.029586 3.49298 10792370
5.1712 0.413571 15.6681 5593953
-0.0546865 -0.0301265 3.47617 4214376
-0.0547425 -0.0296588 3.47963 5727090
-0.0608033 -0.00741178 3.62975 3422791
-0.0556579 -0.0307309 3.46847 5202035
-0.0561407 -0.0273564 3.48792 9875387
-0.0558 -0.0284317 3.48131 7437449
-0.0543944 -0.0294241 3.47617 10657958
-0.0564899 -0.0290996 3.47602 9608352
-0.0558731 -0.0305716 3.4686 8617596
-0.0555347 -0.0296413 3.47376 7106685
-0.0550213 -0.0294514 3.47482 10202041
-0.0528544 -0.0279005 3.48127 10070200
-0.0533018 -0.030421 3.47022 6908005
-0.0517021 -0.0370548 3.48319 5844248
-0.0553679 -0.0329918 3.47237 7488812
-0.0538369 -0.0359181 3.48164 8888239
-0.0535066 -0.0350806 3.47901 9674147
-0.0533447 -0.035526 3.48037 8557210
-0.052608 -0.0354024 3.4797 6632730
-0.053369 -0.0372791 3.48667 5201002
-0.0537772 -0.034364 3.47691 5858671
0.0626253 -0.18587 3.94922 5322018
-0.0489017 -0.0479441 3.52375 4802639
-0.0535853 -0.0347936 3.47894 12308189
-0.0525118 -0.0351335 3.48027 6898733
-0.0524586 -0.0349843 3.4801 11253442
-0.0547987 -0.0333761 3.47505 12832472
-0.05104 -0.0386998 3.49419 13620701
-0.053528 -0.0360693 3.48518 13293021
-0.0543852 -0.0351948 3.48245 9019057
-0.0531191 -0.034904 3.48074 11122885
-0.0551066 -0.0348937 3.4818 10532035
-0.054958 -0.0344728 3.48015 12569300
-0.0553792 -0.0330338 3.47411 6508360
-0.0541912 -0.0344341 3.47997 14081508
-0.0545121 -0.0330552 3.47432 12699340
-0.0534318 -0.0339169 3.47742 10003376
-0.0538917 -0.0359723 3.48671 13225946
-0.0544297 -0.0338317 3.47774 11911111
-0.0523809 -0.0350179 3.48233 10726842
0.0311579 -0.177015 4.09013 14016228
-0.0535834 -0.0336765 3.4773 10596027
-0.0482875 -0.0375388 3.49251 9217454
-0.0543531 -0.0334946 3.47739 9212319
-0.0538047 -0.0333788 3.47674 7044753
-0.0533725 -0.0334888 3.47693 10794176
-0.05409 -0.0333187 3.47681 9016742
-0.0554001 -0.0346546 3.48435 13225422
-0.0535394 -0.0332153 3.47614 8885153
-0.0550001 -0.0335071 3.47865 12043213
-0.0533223 -0.0333537 3.47698 8951457
-0.0553868 -0.0341932 3.48256 12634066
-0.0551048 -0.0317859 3.47002 13687522
-0.0551586 -0.0338322 3.48112 8949661
-0.0523392 -0.033615 3.47822 7636374
-0.0540737 -0.0328536 3.47531 11647430
-0.0537897 -0.0330309 3.47611 13226715
-0.0536552 -0.0330581 3.4766 7963535
-0.054977 -0.0330462 3.47742 10069684
-0.0551057 -0.0337036 3.4814 11187910
-0.0540867 -0.0329658 3.47659 12766167
-0.0553897 -0.0333899 3.47973 11451841
-0.0506501 -0.0341802 3.48186 4344391
-0.0537186 -0.03295 3.47658 13490658
-0.0515513 -0.0339091 3.48047 7504274
-0.0548507 -0.0330139 3.47785 7900313
-0.0554265 -0.0337496 3.48462 6319232
-0.0545495 -0.0326837 3.47659 7569035
-0.0534775 -0.0329109 3.4773 12570329
-0.0521465 -0.0331046 3.47823 10464180
-0.0541376 -0.0330421 3.47904 8687000
-0.0537615 -0.0326864 3.47636 10923956
-0.0528001 -0.032967 3.47744 12831696
-0.0495585 -0.0352359 3.49133 7700621
-0.0554695 -0.033276 3.48229 6516353
-0.0540872 -0.0322365 3.47378 10729666
-0.0539377 -0.032523 3.47585 13424094
-0.0530079 -0.0327508 3.47696 11978952
-0.0498583 -0.0339794 3.48351 6514528
-0.0540259 -0.0323574 3.47517 10792636
-0.0533823 -0.0325487 3.47601 3819355
-0.052202 -0.0327372 3.47696 4737866
-0.0541709 -0.0324743 3.47652 14674157
-0.0545703 -0.0330381 3.48167 6780034
-0.0547486 -0.0323556 3.47641 4082267
-0.0556396 -0.0318208 3.4731 6910079
-0.0518297 -0.032993 3.48011 11122883
-0.0555108 -0.031273 3.46839 4214365
0.00476256 -0.0655323 3.70251 4804962
-0.0543882 -0.0322873 3.47677 12504273
0.0673979 -0.0991017 3.93731 6449270
-0.0498828 -0.0332848 3.48282 8687241
-0.0503013 -0.0337306 3.48524 7503756
-0.0540533 -0.0320774 3.47594 9278106
-0.0548836 -0.0318686 3.4744 7370879
-0.0493153 -0.0333021 3.48318 9414836
-0.0554215 -0.0318119 3.47472 10726838
-0.0545414 -0.0318273 3.47446 13161691
-0.0548945 -0.0315608 3.47181 12437971
-0.0545649 -0.0317758 3.47395 12437969
-0.0531719 -0.0320938 3.4761 2764857
-0.0528131 -0.0320909 3.47575 5791848
-0.0504466 -0.0327771 3.48134 7438202
0.21383 -0.124583 4.22735 5923178
-0.0544924 -0.0318817 3.47591 11845575
-0.050885 -0.0325367 3.48042 9608342
-0.0500425 -0.0327573 3.48221 3091756
-0.0538366 -0.0319257 3.47636 8028815
-0.0556616 -0.0321665 3.48346 5791857
-0.05428 -0.0317426 3.47512 9543084
-0.0550084 -0.0319116 3.47916 5524810
0.0963494 -0.0731137 3.89745 4740441
-0.0481583 -0.0331432 3.48519 6637882
-0.0542727 -0.0316452 3.47401 13291734
-0.0548408 -0.0315902 3.47476 11320777
-0.0558063 -0.0321103 3.48695 5133407
-0.0556315 -0.0316383 3.47767 8754336
-0.0514493 -0.032143 3.47918 6319478
-0.0495022 -0.0324613 3.48235 4146502
-0.0501905 -0.0321912 3.4804 8822445
-0.0552643 -0.031263 3.47155 13951464
-0.0545944 -0.0314731 3.47497 12240078
-0.0503895 -0.0320464 3.48036 7438474
-0.0557718 -0.0314342 3.48004 5133152
-0.00248047 -0.0563963 4.05009 11517130
-0.0497656 -0.0321792 3.48251 7503490
-0.0557287 -0.0316889 3.49012 6978699
-0.0545428 -0.031382 3.47463 11779266
-0.0527727 -0.0315922 3.47657 9871792
-0.0523419 -0.0316162 3.47749 10924736
-0.0542456 -0.0314657 3.48041 13424605
-0.0555414 -0.031315 3.47884 8818071
-0.0555932 -0.0312238 3.47794 8095632
-0.0523343 -0.0315041 3.47611 4936023
-0.0560625 -0.031185 3.50154 11052451
-0.0529901 -0.0313618 3.47597 10793402
-0.0554323 -0.0311077 3.48121 10396587
-0.0550742 -0.0311083 3.47795 9345189
-0.0510856 -0.031255 3.49066 7963021
-0.0558626 -0.0308195 3.48273 9408912
-0.0497521 -0.031348 3.48143 6384234
-0.0549453 -0.0309291 3.47324 2567740
-0.053482 -0.03104 3.47606 4147286
-0.0528413 -0.0310688 3.47618 6648444
-0.05133 -0.031166 3.4783 6056045
-0.0486051 -0.0312337 3.48267 6515055
-0.0550237 -0.0307937 3.47841 10201008
-0.0519374 -0.0309555 3.48012 8621462
-0.0518031 -0.0310648 3.47675 7569545
-0.0552333 -0.0306824 3.47815 10069427
-0.0272044 -0.0282003 3.62048 2635081
-0.0535934 -0.0307852 3.47862 3294556
-0.0557766 -0.0303407 3.48209 7633018
-0.055445 -0.0307977 3.47474 9213603
-0.0563279 -0.029883 3.49126 10068906
-0.0499655 -0.0308217 3.48118 7439756
-0.0493632 -0.0309179 3.4812 5392965
-0.0457281 -0.0306725 3.48942 6381663
-0.0556795 -0.03039 3.47847 8094086
-0.0484483 -0.0306909 3.48377 9281693
-0.0556588 -0.0307466 3.471 7176590
-0.0535538 -0.0306313 3.47552 11450561
-0.055285 -0.0302655 3.47886 10793920
-0.0561361 -0.0297388 3.48444 8882571
-0.0505639 -0.0305785 3.47908 5200479
-0.0511806 -0.0306403 3.47739 5594980
-0.0527878 -0.0305246 3.47579 5726572
-0.055386 -0.0299172 3.48049 11779272
-0.0534538 -0.0304304 3.47572 9872041
-0.0556115 -0.0298843 3.47951 9542311
-0.0556802 -0.0306394 3.47064 11451075
-0.0536425 -0.0304124 3.47532 3948361
-0.0536153 -0.0303957 3.47494 7240581
-0.0471696 -0.030004 3.48518 9610149
-0.0550564 -0.030047 3.47757 12502989
-0.0562537 -0.0272633 3.50483 9149870
-0.0549904 -0.029749 3.47985 10004144
-0.0510636 -0.0302902 3.47788 4079687
-0.0554688 -0.029996 3.47666 8161434
-0.0535392 -0.0302762 3.4756 3950423
-0.0564531 -0.0267531 3.50611 6849691
-0.0493393 -0.0301366 3.48002 4407870
-0.0532096 -0.0302301 3.47588 8488848
-0.0489299 -0.0299868 3.48134 6647659
-0.0545422 -0.0300193 3.47645 10135988
0.108557 -0.00599781 3.8073 4076852
-0.0562888 -0.0278903 3.49292 4873072
-0.0553195 -0.0292867 3.4812 8818588
-0.0544555 -0.0299261 3.47642 7767707
-0.0508293 -0.029969 3.47833 8164766
0.155543 -0.00779512 3.80019 8419955
-0.0543597 -0.0302247 3.47362 3816519
0.185867 -0.00202203 3.84793 5983553
0.0993043 -0.0133483 3.70668 12162676
-0.0558604 -0.0284613 3.48505 6717841
-0.0494136 -0.0295112 3.48133 3489348
-0.0558098 -0.02679 3.49665 4148830
-0.0505369 -0.0297282 3.47875 8165801
0.0599273 -0.00705767 3.70277 7831164
0.144079 0.00440003 3.83776 8157040
0.194882 0.00851804 3.89579 5654594
-0.0494208 -0.0294046 3.48128 6057343
-0.0494078 -0.0294821 3.4814 5529187
0.170344 0.00433219 3.83528 5722966
-0.0436562 0.108491 4.38991 8226448
0.45941 0.0446631 4.28821 6116169
0.0886351 -0.00626009 3.71286 8621200
0.13689 -0.000907931 3.77614 6320505
0.196834 0.0204604 3.9387 5326658
-0.054807 -0.0294272 3.47732 9873073
-0.0547539 -0.029378 3.47738 8359585
-0.0501655 -0.029483 3.47923 5597296
-0.0551358 -0.029364 3.47737 7240077
0.182588 0.010429 3.84919 5856605
0.180741 0.00960954 3.83817 6449259
-0.0547721 -0.0292115 3.47795 10597318
-0.0437816 -0.0268255 3.49809 4407877
-0.0465309 -0.0287067 3.48509 5789782
-0.0551563 -0.030808 3.46804 6187120
0.0952655 -0.00156337 3.71415 6647157
0.460194 0.0730096 4.37618 5854548
-0.0555981 -0.0309365 3.46702 11509386
-0.0545548 -0.0296798 3.47468 8289151
0.212771 0.0346612 3.96749 6316388
-0.0555805 -0.0309313 3.46701 5923438
-0.0527921 -0.0302466 3.47198 5921370
0.177006 0.0143242 3.82579 5527391
-0.0925419 0.071608 4.01721 7634046
-0.0554338 -0.0285753 3.47984 4212056
-0.0548105 -0.0290688 3.47743 11648206
-0.0538957 -0.0288332 3.47921 10990016
-0.054457 -0.0294058 3.47561 13819880
0.0915467 0.00514989 3.7256 6315094
-0.0462376 -0.0280486 3.48593 10070963
-0.0539783 -0.0290486 3.4773 11188423
-0.03719 -0.0265729 3.49719 7105646
-0.056148 -0.029574 3.4737 4805466
0.419381 0.0946177 4.31837 5132366
-0.0805114 0.0672336 3.95668 7966622
-0.0465486 -0.027284 3.48856 6318711
0.201312 0.0268836 3.85581 5860212
-0.0555674 -0.0271442 3.48558 11127518
-0.0552644 -0.0274772 3.48389 4673891
-0.0514623 -0.0291355 3.4773 7305083
-0.0566228 -0.0253109 3.49346 6585225
-0.0545752 -0.0289862 3.47654 9609905
-0.0501664 -0.0286738 3.47966 7505044
-0.0813664 0.079121 3.98085 4804957
-0.0547154 -0.0289836 3.47637 7700890
-0.0476346 -0.0200737 3.52141 10859975
-0.000730924 0.0386943 3.83835 10332599
-0.0557931 -0.0283685 3.47845 7112861
-0.0552747 -0.0274671 3.48322 8887216
-0.0548287 -0.0286995 3.47754 11320520
-0.0551543 -0.0307383 3.46795 13291730
-0.0554776 -0.0285361 3.4777 9350079
-0.0550731 -0.0288608 3.47661 6911884
-0.0555005 -0.0274664 3.48238 6847116
0.305525 0.158419 4.44554 7039347
-0.0570977 -0.0101297 3.56063 5201769
-0.0555711 -0.0251069 3.49315 3950165
-0.0556304 -0.0267462 3.48537 3295323
-0.0554606 -0.0242748 3.49695 5993862
-0.0552422 -0.0306783 3.4681 6516866
-0.0550558 -0.0306104 3.4685 7501439
0.185443 0.0875034 4.09342 12699852
-0.110382 0.188472 4.34947 5529709
-0.054355 -0.0288126 3.4767 7570068
-0.0549371 -0.0292439 3.47439 9544627
-0.0537683 -0.0280934 3.48018 11188671
-0.0545421 -0.0305479 3.46902 9275272
-0.0540794 -0.0304465 3.46965 10922172
-0.0554422 -0.0272393 3.48298 4940922
-0.0540289 -0.0304631 3.46963 5919822
-0.0552772 -0.0277768 3.48051 9282745
-0.0546763 -0.028857 3.4762 10466755
-0.0542798 -0.0305119 3.46916 5919851
-0.0554872 -0.0248708 3.49264 8162718
-0.0540219 -0.0281729 3.4793 8160914
-0.0552356 -0.0307977 3.46762 4474185
-0.0550693 -0.0307713 3.46772 12567226
-0.0550676 -0.0307593 3.46786 9276557
-0.0548946 -0.0299228 3.47114 5396582
-0.0553662 -0.0308419 3.46728 5459021
-0.0553128 -0.0306688 3.46799 3749949
-0.0575166 -0.0283192 3.4768 5328448
-0.0556373 -0.0308852 3.46701 12370369
-0.0551096 -0.028737 3.47578 7765117
-0.0552049 -0.0307833 3.46764 5398381
0.060984 0.0304104 3.76089 5460838
-0.0560356 -0.0301096 3.47003 3884357
-0.0556303 -0.0309148 3.46688 5197909
-0.0992401 0.105685 4.05195 4803414
-0.125666 0.265218 4.59477 8491931
-0.0555752 -0.0308749 3.46707 11978959
-0.055077 -0.0307689 3.46764 10066349
-0.0551195 -0.0306384 3.46823 13358552
-0.0555791 -0.0307672 3.4675 10324371
-0.054896 -0.0306111 3.46824 7169125
-0.0560066 -0.0299776 3.47043 3952224
-0.0561524 -0.029581 3.47199 5332585
-0.0871229 0.0531212 3.78621 7043724
-0.0516024 -0.0252509 3.49075 11315886
-0.0561507 -0.029879 3.47078 7377829
-0.0556687 -0.0308902 3.46696 8097957
0.0263721 0.0441562 3.79643 10460055
0.361061 0.191612 4.48236 9014417
-0.0555372 -0.0308559 3.46708 14209480
-0.0556696 -0.0309004 3.46689 7896220
-0.0557461 -0.0308 3.46728 7963029
-0.0557248 -0.0308013 3.46722 11253189
-0.0556244 -0.030852 3.46707 13884390
-0.055245 -0.0301795 3.46983 10858681
-0.0548993 -0.0281303 3.47702 6447215
-0.0437223 -0.0219334 3.50161 8554660
-0.0525457 -0.02915 3.47395 11973558
-0.0555281 -0.0308189 3.46716 11178109
0.0559841 0.0710975 3.85267 10534575
-0.0532899 -0.0293521 3.47286 10060409
-0.0556418 -0.0308768 3.46694 8030625
-0.0557937 -0.0301822 3.46964 9348030
-0.0554782 -0.0307981 3.4673 15128796
-0.0550735 -0.0307036 3.46769 9532289
-0.0555852 -0.0307817 3.46727 10199206
-0.056742 -0.0281539 3.47708 5661301
-0.0595665 -0.0108102 3.54221 4739956
-0.0538303 -0.02516 3.4874 4938341
-0.0556529 -0.0308051 3.46718 5067132
-0.0807714 0.108877 3.93931 5858682
-0.0556113 -0.0308405 3.46704 12564157
-0.0543952 -0.0289209 3.47401 8292501
-0.0555672 -0.0308166 3.46714 3817293
-0.0559497 -0.0302659 3.46904 6976381
-0.0556471 -0.0307664 3.46732 4412542
-0.0564058 -0.0272913 3.47904 9024447
-0.0555978 -0.0308843 3.46692 3747144
0.00314068 0.346167 4.73627 9942465
-0.0555414 -0.0307489 3.46733 3817039
-0.0555622 -0.0308529 3.467 10455932
-0.119824 0.259368 4.42946 3948621
-0.0540639 -0.0360258 3.4823 9866889
-0.0532512 -0.0349996 3.47915 5726566
-0.0548176 -0.0359022 3.4847 7032385
-0.0550361 -0.035361 3.48347 9738656
-0.0540279 -0.0346604 3.48002 10661820
-0.054977 -0.0323267 3.47139 10134963
-0.0550978 -0.0350613 3.4835 7238519
-0.0508413 -0.0356595 3.48524 9675695
-0.0458292 -0.0400264 3.50139 6254979
-0.0538224 -0.0334026 3.47677 9281456
-0.0537164 -0.0333558 3.47667 5133923
-0.0543928 -0.0330401 3.47673 8687773
-0.0552656 -0.0326642 3.47583 10991041
-0.0536341 -0.037573 3.50489 8490139
-0.0549238 -0.0327196 3.47662 6780031
-0.0448366 -0.0388077 3.51058 6647417
-0.0547126 -0.0325572 3.47659 12108487
-0.0531432 -0.0329902 3.47838 9807795
-0.0533045 -0.0324688 3.47583 10727860
-0.0493946 -0.0338604 3.48448 3026991
-0.0343335 -0.0692035 3.85897 11385799
-0.0551956 -0.0322242 3.4808 7504014
-0.0507885 -0.0322348 3.48042 8293768
-0.0554498 -0.0315389 3.47805 11648199
-0.0551864 -0.031814 3.48441 12306898
-0.0555949 -0.0312933 3.47401 12241104
-0.0504846 -0.0319594 3.48031 3422009
-0.0542584 -0.0313972 3.47491 12241364
-0.0540195 -0.0313839 3.47504 5528422
-0.0496535 -0.0318948 3.48186 9416901
-0.0472613 -0.0318762 3.48676 11960147
-0.0538062 -0.0311896 3.4754 8029840
-0.0550124 -0.0311019 3.46897 4475475
-0.0526515 -0.031163 3.47668 5001565
-0.0545322 -0.0309139 3.47299 3161938
-0.0536956 -0.0308493 3.47616 4413808
-0.0531596 -0.0306109 3.47559 6777973
-0.0551532 -0.0301196 3.47877 12768475
-0.050418 -0.0303973 3.47968 5792359
-0.054929 -0.0303821 3.47424 7373457
-0.0539266 -0.0299097 3.47974 3621456
-0.0479106 -0.030066 3.48326 8952985
-0.0544943 -0.0296989 3.47815 7899033
-0.0508988 -0.0297712 3.47821 7373714
-0.0559229 -0.029343 3.47688 7963794
-0.0556941 -0.0279774 3.48447 11587034
0.133067 0.0137681 3.82339 5129793
-0.0876929 0.0637893 3.98528 7305849
-0.0548485 -0.0290134 3.4778 11715023
-0.0696393 0.0294297 3.78534 8822442
-0.0951295 0.074373 4.01459 12235168
-0.0722936 0.117059 4.17754 6518141
-0.0543876 -0.0295612 3.47422 11714250
-0.0497658 -0.0285851 3.48068 6911876
-0.0550742 -0.0288473 3.47696 7636374
-0.0553025 -0.0284813 3.47808 4411749
-0.0795068 0.0930225 4.00909 3093308
-0.0547904 -0.0290881 3.47536 10662850
-0.0540612 -0.0302759 3.47033 9872045
-0.0550146 -0.0306719 3.46831 4800066
-0.0543307 -0.0291394 3.47514 9805482
-0.0542787 -0.0291931 3.47477 6843006
-0.0557937 -0.0303325 3.46954 4342867
-0.0556618 -0.0308409 3.46717 4606805
-0.0538227 -0.0304163 3.46938 9406132
-0.0556772 -0.0308273 3.46717 8814208
-0.0555288 -0.0308618 3.46707 5327446
0.0525559 0.06559 3.89509 16315109
-0.0559817 -0.0303925 3.46881 4080976
