# .PCD v0.7 - Point Cloud Data file format
VERSION 0.7
FIELDS x y z rgba
SIZE 4 4 4 4
TYPE F F F U
COUNT 1 1 1 1
WIDTH 1316
HEIGHT 1
VIEWPOINT 0 0 0 1 0 0 0
POINTS 1316
DATA ascii
-0.295633 -0.215311 4.48947 3817028
-0.162965 -0.20899 4.43503 9148576
-0.0974489 -0.211141 4.42245 3027513
-0.0631104 -0.214927 4.46134 3821672
-0.0127924 -0.21929 4.50035 7831172
-0.318154 -0.213228 4.54761 5134177
-0.30811 -0.214528 4.53474 2828850
-0.293686 -0.246058 4.95346 6448490
-0.220757 -0.210835 4.43672 12569042
-0.162965 -0.20899 4.43503 9148576
-0.138367 -0.202656 4.38999 4541011
-0.0966405 -0.206934 4.43134 5198680
-0.0817955 -0.20997 4.45652 5001817
-0.081768 -0.209956 4.45629 5001817
-0.00788877 -0.21744 4.49911 7502984
-0.311933 -0.210089 4.52065 5726572
-0.227187 -0.160782 3.92419 8885405
-0.250515 -0.206494 4.45777 11845576
-0.189683 -0.192921 4.36369 7174277
-0.175569 -0.19783 4.41495 6581108
-0.117028 -0.203338 4.36398 2368554
-0.0682171 -0.210085 4.46854 2436152
0.206439 -0.247058 4.85382 6186344
-0.245216 -0.201842 4.44121 11320004
-0.211891 -0.198545 4.37567 11056321
-0.200502 -0.161867 3.91242 9410980
-0.062516 -0.20875 4.47347 2171692
-0.229553 -0.198207 4.36483 13424865
0.145575 -0.231693 4.75269 4936281
-0.316397 -0.203699 4.54069 3814710
-0.179875 -0.192585 4.42663 6515317
-0.162764 -0.198276 4.43275 10596028
-0.101795 -0.220145 4.76807 7633024
-0.114517 -0.201764 4.44834 6053737
-0.0451068 -0.219092 4.64534 2830391
-0.0596321 -0.203798 4.47615 3490642
-0.261908 -0.197991 4.47283 10134697
-0.212201 -0.191957 4.37488 14477036
-0.102016 -0.219739 4.76195 7633024
-0.0319833 -0.20299 4.48142 11452104
-0.0171953 -0.203929 4.48633 12373203
-0.297407 -0.191534 4.44531 10332075
-0.179875 -0.192585 4.42663 6515317
-0.10036 -0.189046 4.32242 5724511
-0.303624 -0.193751 4.50752 10397355
-0.289089 -0.195002 4.49929 3817032
-0.061266 -0.19744 4.47316 2435636
-0.29639 -0.191195 4.48368 11582404
-0.252662 -0.186793 4.42649 8819617
-0.379882 -0.193553 4.5953 3750721
-0.316952 -0.190738 4.52319 4868948
-0.310464 -0.18791 4.52293 11385277
-0.260402 -0.187748 4.45234 13293280
-0.0234684 -0.194076 4.48671 3158330
-0.00289011 -0.19341 4.49435 8820896
-0.272809 -0.185733 4.45792 14149354
-0.195913 -0.174566 4.31994 9213862
-0.0260582 -0.188096 4.42928 4605258
-0.324296 -0.185825 4.5223 11384252
-0.287713 -0.176112 4.4549 14017261
-0.247762 -0.178848 4.38976 13227486
-0.220679 -0.177115 4.35051 11190479
-0.149053 -0.184 4.43774 11319745
-0.109099 -0.185976 4.46265 5660010
-0.309254 -0.180775 4.50252 6054770
-0.265509 -0.176126 4.40127 9938356
-0.225742 -0.174248 4.35561 14804974
-0.219777 -0.1768 4.35256 11451592
-0.0262605 -0.185647 4.43461 6844795
-0.361839 -0.177368 4.49961 12504793
-0.359267 -0.181844 4.5704 13294051
-0.334011 -0.181738 4.54253 5458762
-0.329409 -0.178901 4.53712 10527658
-0.32776 -0.177085 4.54319 15068145
-0.304575 -0.178344 4.47546 6976126
-0.287713 -0.176112 4.4549 14017261
-0.146855 -0.177518 4.41077 10265771
-0.217611 -0.167563 4.2976 12305872
-0.0435988 -0.179665 4.45614 5855581
-0.0240919 -0.181832 4.48439 5394775
-0.0192932 -0.181936 4.48334 5857129
-0.00283942 -0.182021 4.50979 10924213
-0.377215 -0.173537 4.54576 11319494
-0.31526 -0.17593 4.52642 8621206
-0.313899 -0.175952 4.52174 8621206
-0.240754 -0.167443 4.35885 12042958
-0.182415 -0.167487 4.39891 10135217
-0.168465 -0.16718 4.40898 9082785
-0.0430976 -0.177751 4.46686 11450820
-0.00285348 -0.181838 4.50599 10924213
-0.266901 -0.171921 4.50041 11582921
-0.140152 -0.172857 4.44671 12240847
-0.259773 -0.164518 4.39307 10267834
-0.330212 -0.170482 4.53872 13490402
-0.0540542 -0.174486 4.50971 5262156
-0.0580186 -0.168845 4.46103 9213341
0.0109391 -0.175174 4.53487 9609644
-0.341261 -0.165512 4.53113 11648969
-0.205575 -0.161005 4.36476 11844550
-0.16788 -0.150943 4.12493 6779519
-0.125427 -0.165143 4.43741 6974321
-0.0416674 -0.173974 4.61498 10857908
-0.00952893 -0.17011 4.47965 12701913
-0.147298 -0.161516 4.42232 8623523
-0.0983176 -0.162346 4.37855 9606037
-0.0983176 -0.162346 4.37855 9606037
-0.0718492 -0.167422 4.5077 11582141
-0.0414331 -0.174115 4.61846 10857908
-0.309312 -0.157899 4.4833 11780557
-0.212239 -0.155064 4.33156 12371408
-0.121518 -0.158139 4.49542 10596026
-0.373071 -0.15932 4.60497 11780299
-0.228161 -0.152321 4.29049 15002350
-0.202564 -0.155649 4.33677 13621473
-0.0403029 -0.164358 4.47484 9149870
0.00463328 -0.165538 4.5504 10398904
-0.200491 -0.150917 4.33077 12699858
-0.10937 -0.155744 4.44048 12437968
-0.109267 -0.155732 4.43954 12437968
-0.0967405 -0.156912 4.39727 12635088
-0.383024 -0.152478 4.57726 11714507
-0.338831 -0.151902 4.51615 14673389
-0.215917 -0.146375 4.29073 12305609
-0.0442315 -0.155705 4.52924 11647938
0.00639878 -0.16071 4.5145 11253696
-0.20661 -0.14824 4.36204 13226197
-0.104068 -0.148968 4.43921 8029070
-0.0989984 -0.153545 4.44651 9543076
-0.0634466 -0.153293 4.45431 9412010
-0.0443474 -0.155608 4.52557 11647938
-0.0391955 -0.155499 4.46493 9346475
0.0332938 -0.158912 4.54986 8424853
-0.104068 -0.148968 4.43921 8029070
-0.0908623 -0.150714 4.42028 11187907
-0.339348 -0.141351 4.41146 12240846
-0.288346 -0.143306 4.44256 10398907
-0.0402682 -0.14782 4.46213 11713222
-0.0153089 -0.15414 4.6357 10793662
0.000233465 -0.150629 4.4747 8096147
-0.359054 -0.145408 4.54041 13030104
-0.306553 -0.139268 4.3677 12964056
-0.306131 -0.139378 4.36777 12964056
-0.0827793 -0.145701 4.44288 7436935
-0.20661 -0.131231 3.94818 14147557
-0.378393 -0.147085 4.70232 11450819
-0.232407 -0.137691 4.35007 12174286
-0.206383 -0.140587 4.4059 11712958
-0.168262 -0.164711 5.22933 11516870
-0.122269 -0.142458 4.42902 7504790
-0.0354741 -0.141578 4.44985 9477292
-0.400052 -0.13355 4.59465 9542565
-0.305876 -0.135763 4.47008 11713994
-0.118224 -0.137946 4.36679 10464438
-0.173414 -0.133844 4.39943 7502729
-0.0850846 -0.140491 4.44228 8620690
-0.0665572 -0.141415 4.45327 7964053
-0.0192089 -0.143595 4.47107 11188421
-0.00360546 -0.143316 4.48182 10202036
-0.346385 -0.126237 4.48816 10398394
-0.265477 -0.136116 4.41215 7766932
-0.0395241 -0.140476 4.44869 7437197
-0.0301881 -0.139847 4.44626 10595517
-0.429429 -0.132718 4.69915 11780297
-0.356927 -0.13625 4.52363 11977159
-0.201156 -0.132108 4.32809 9345706
-0.097861 -0.13333 4.43012 10793405
-0.097861 -0.13333 4.43012 10793405
-0.0805268 -0.136125 4.44132 10135476
-0.0734587 -0.136244 4.44014 8687516
-0.05912 -0.136539 4.39996 10266549
-0.332565 -0.128388 4.45545 11187650
-0.324527 -0.129991 4.56762 12503506
-0.273891 -0.129916 4.40531 6911877
-0.226241 -0.129535 4.36603 13752281
-0.197051 -0.129809 4.30798 8293533
-0.10116 -0.135675 4.47548 10530232
-0.149379 -0.135179 4.38537 10399674
-0.0577674 -0.131346 4.3382 7700883
0.00273188 -0.137101 4.49538 8950939
-0.356927 -0.13625 4.52363 11977159
-0.255677 -0.125133 4.39172 13490145
-0.167049 -0.134956 4.41217 7502729
-0.0681807 -0.133742 4.48346 9739689
0.0167972 -0.135318 4.505 7041911
-0.33227 -0.124069 4.46946 12109009
-0.25604 -0.125078 4.39335 13490145
-0.193706 -0.123125 4.31694 10990535
-0.172233 -0.126683 4.34289 6976642
-0.14304 -0.128931 4.39835 4871261
-0.132875 -0.127578 4.40235 12043467
-0.104973 -0.126823 4.44218 9609386
-0.0280265 -0.129639 4.45314 7502987
0.00660787 -0.129486 4.49848 6778741
-0.198856 -0.120271 4.29627 12175060
-0.104994 -0.126821 4.44247 9609386
-0.0883049 -0.125947 4.44347 14409699
-0.0640076 -0.124088 4.43931 9674412
-0.0640076 -0.124088 4.43931 9674412
-0.0546883 -0.126954 4.41071 8293529
-0.347955 -0.12451 4.50236 9609393
-0.33484 -0.114588 4.4668 9872306
-0.286511 -0.120412 4.43938 7965851
-0.198856 -0.120271 4.29627 12175060
-0.164197 -0.119165 4.37404 11517643
-0.123956 -0.124436 4.41293 12109519
-0.0883049 -0.125947 4.44347 14409699
-0.378952 -0.118238 4.53379 8489111
-0.324974 -0.11849 4.48102 13556196
-0.329045 -0.119167 4.41779 12437971
-0.278187 -0.118184 4.40224 12503763
-0.259799 -0.115975 4.30571 12504021
-0.0863956 -0.121231 4.38355 12371403
-0.278187 -0.118184 4.40224 12503763
-0.228268 -0.117314 4.31628 14607588
-0.217511 -0.118062 4.30666 12107198
-0.192411 -0.116933 4.3058 10266809
-0.183996 -0.118132 4.32101 5266027
-0.103214 -0.12056 4.41131 9410461
-0.0638816 -0.124099 4.43854 9674412
-0.0509977 -0.122266 4.44874 10858425
-0.337665 -0.110519 4.49404 11253441
-0.32672 -0.113316 4.5547 11582922
-0.209192 -0.115457 4.29657 9610414
0.0323326 -0.107642 5.24467 8292501
-0.127849 -0.11793 4.40723 9018026
-0.114699 -0.11753 4.41226 12767706
-0.302328 -0.108882 4.46748 11320517
-0.30234 -0.108879 4.46753 11320517
-0.253796 -0.113216 4.39285 10990271
-0.209215 -0.115453 4.29659 9610414
-0.169922 -0.113683 4.33057 10200238
-0.184085 -0.114373 3.95527 9411496
-0.0829018 -0.11626 4.60867 8555413
-0.0960876 -0.116451 4.46721 11845318
-0.0954773 -0.106709 4.39129 8095377
-0.0455447 -0.117319 4.43437 6911101
-0.00164918 -0.123177 4.46726 7107967
0.0123888 -0.114791 4.54287 5397090
-0.349349 -0.107162 4.49764 12437202
-0.286273 -0.115847 4.43869 8622236
-0.253617 -0.113254 4.39251 10990271
0.0323326 -0.107642 5.24467 8292501
-0.182396 -0.111979 4.36838 7304838
-0.0574084 -0.114164 4.42822 10201010
-0.0574084 -0.114164 4.42822 10201010
-0.0247393 -0.104945 4.44848 6648196
-0.328828 -0.105611 4.45112 8951201
-0.0741293 -0.111256 4.42459 10201008
-0.0417669 -0.114236 4.43396 7173764
0.0348532 -0.114144 4.53085 3751237
-0.26202 -0.109636 4.41121 9280171
-0.226053 -0.107183 4.31971 10726059
-0.226229 -0.107146 4.32 10726059
-0.145618 -0.10485 4.3925 8554896
-0.0569937 -0.107189 4.43529 6449783
-0.356949 -0.10111 4.50914 9082530
-0.334046 -0.0995225 4.50547 12700885
-0.292367 -0.102587 4.49428 10859193
-0.265835 -0.102745 4.3778 7174793
-0.253962 -0.101985 4.36135 9345703
-0.189957 -0.104828 4.30421 4146773
-0.173379 -0.106423 4.30086 6317682
-0.123693 -0.107278 4.41211 3424592
-0.111756 -0.105017 4.40954 6120816
-0.0810929 -0.105517 4.42437 7370627
-0.0465335 -0.106692 4.43168 7239811
-0.299243 -0.0981326 4.48137 7898773
-0.219728 -0.1075 4.23004 12699597
-0.203314 -0.102646 4.31401 10661820
-0.145618 -0.10485 4.3925 8554896
-0.092991 -0.10734 4.4289 8621463
-0.0466414 -0.106675 4.43239 7239811
-0.0382933 -0.105061 4.43752 4805217
-0.024755 -0.104943 4.4486 6648196
-0.359932 -0.0959121 4.41556 9805481
-0.316304 -0.0976171 4.46602 12372695
-0.290531 -0.0991158 4.4561 6122618
-0.266952 -0.0976756 4.36521 4805730
0.287972 -0.0928646 7.80924 8555919
-0.114494 -0.0994348 4.39971 11451328
-0.342646 -0.0954333 4.49746 9740459
-0.299243 -0.0981326 4.48137 7898773
-0.280165 -0.0982612 4.38809 9674413
-0.215156 -0.0997728 4.27927 9805993
-0.204239 -0.0981527 4.27911 5726577
-0.168522 -0.106487 4.10006 4671828
-0.149646 -0.0994613 4.35474 7305599
-0.12832 -0.0995572 4.40468 2830654
-0.114468 -0.0994416 4.39952 11451328
-0.0708647 -0.0973407 4.41496 9476256
-0.377954 -0.0901519 4.51679 10660275
-0.320621 -0.0918907 4.49079 8819108
-0.280165 -0.0982612 4.38809 9674413
-0.242724 -0.0946634 4.36035 8159883
-0.235659 -0.09536 4.3394 6711922
-0.235784 -0.0953299 4.33964 6711922
-0.218972 -0.0964999 4.30362 10069421
-0.10646 -0.0945236 4.41027 9477804
-0.0958101 -0.0972559 4.39492 7436931
-0.0667027 -0.0957424 4.48953 9410980
-0.332012 -0.0901047 4.46259 9016742
-0.314172 -0.0854392 4.46923 11845582
-0.231273 -0.0941294 4.39625 7501695
0.182717 0.089244 16.4783 9410725
-0.210556 -0.0994277 4.14732 8686486
-0.325596 -0.0858735 4.53696 11912658
-0.300143 -0.0873061 4.42762 8162975
-0.287484 -0.0876072 4.42866 5924471
-0.12832 -0.0995572 4.40468 2830654
-0.106458 -0.0945245 4.41025 9477804
-0.0958101 -0.0972559 4.39492 7436931
-0.0769505 -0.0908686 4.41077 9805223
-0.0569571 -0.0924621 4.43239 8817554
-0.0426797 -0.0995727 4.45267 5857903
-0.358999 -0.0821637 4.51244 7568265
-0.301338 -0.0869154 4.42776 7636631
-0.268025 -0.0839309 4.40524 2239034
-0.114794 -0.0910741 4.39729 4872297
-0.309253 -0.0830136 4.44949 8951207
-0.292848 -0.084226 4.43337 9807544
-0.0993748 -0.0897172 4.40765 7240070
-0.0460437 -0.0881355 4.43606 7108226
-0.280964 -0.0817191 4.35799 8228000
-0.100672 -0.0852004 4.3297 7042433
-0.203364 -0.0854187 4.2843 4279908
-0.150479 -0.0746636 4.40034 4347758
-0.100652 -0.0852028 4.32969 7042433
-0.0613443 -0.086713 4.45437 5791846
-0.14378 -0.0817294 4.37177 4346208
-0.0403632 -0.0810064 4.44795 4607835
-0.27824 -0.0763091 4.36182 10530495
-0.0805476 -0.0794937 4.39681 8554640
-0.0285628 -0.0791496 4.44552 4277843
-0.268886 -0.0749243 4.31173 5597567
-0.258407 -0.07151 4.542 4343638
-0.224235 -0.0709526 4.35171 2569031
-0.118654 -0.0779678 4.38919 9213089
-0.118654 -0.0779678 4.38919 9213089
-0.0855835 -0.0755759 4.45052 9344926
-0.33245 -0.0697912 4.47242 12372178
-0.322578 -0.0608761 4.40227 9082788
-0.292832 -0.0719943 4.43171 8623270
-0.110679 -0.0737049 4.38149 8884638
-0.0694219 -0.0726629 4.44476 5002333
-0.0300862 -0.0737257 4.4513 7042689
-0.296566 -0.0662083 4.41288 10332602
-0.268886 -0.0749243 4.31173 5597567
-0.129298 -0.0659801 4.42043 9213600
-0.0488042 -0.0714014 4.44702 8554639
-0.0338729 -0.0737156 4.46044 7568520
-0.363346 -0.0688488 4.28172 8226190
-0.304701 -0.0655933 4.4342 9148069
-0.289927 -0.0665378 4.4164 13621476
-0.282827 -0.0660901 4.40488 12174542
-0.22443 -0.0709002 4.35202 2569031
-0.103515 -0.0627326 4.40398 6648191
-0.346081 -0.059113 4.46189 10529208
-0.321153 -0.0618154 4.48445 12371922
-0.124367 -0.0680418 4.411 9478834
2.81685 0.394762 15.9005 8492194
-0.0972388 -0.0649583 4.40916 5857134
-0.0472945 -0.0680996 4.41692 6779259
-0.00998461 -0.0661515 4.47878 4344666
-0.344511 -0.0558542 4.48323 11779784
-0.322935 -0.0607595 4.40288 9082788
-0.298779 -0.0591985 4.42882 13095387
-0.220867 -0.0620115 4.37356 3755361
-0.172792 -0.0519536 4.54776 3029579
-0.103557 -0.0627204 4.40412 6648191
-0.0319463 -0.0625157 4.45851 4278357
-0.295349 -0.0530604 4.44459 10793410
-0.0695136 -0.0609198 4.41807 8094604
-0.0481935 -0.0595891 4.44011 5265252
-0.359659 -0.0512707 4.53426 11385029
-0.319007 -0.0532988 4.44417 13293022
-0.310519 -0.0534838 4.4263 12635352
-0.166234 -0.0587011 4.37203 2500916
-0.11553 -0.05811 4.39856 10926022
-0.290566 -0.0519794 4.41576 12438745
-0.275041 -0.0535817 4.3871 10067884
-0.106199 -0.056962 4.41 7437961
-0.102272 -0.0550878 4.39668 9214116
-0.338295 -0.0463172 4.45978 9477546
-0.0349048 -0.0534018 4.4509 5923438
-0.275779 -0.0502361 4.39897 7763841
-0.238183 -0.0515553 4.37348 4737103
-0.17279 -0.0519402 4.548 3029579
-0.0980096 -0.0485441 4.41976 9741492
-0.102232 -0.0551024 4.39652 9214116
-0.0904961 -0.0523447 4.4078 8947858
-0.0624553 -0.0529527 4.40988 5265509
-0.32457 -0.0436167 4.44619 9739687
-0.11384 -0.0477445 4.39749 9280419
-0.267857 -0.0446172 4.35071 7501702
-0.0876381 -0.0489016 4.388 7040886
-0.410026 -0.0260302 4.60677 10529715
-0.317724 -0.0394829 4.42959 7898002
-0.303928 -0.0393747 4.42419 11517647
-0.283967 -0.0295561 4.58802 9016482
-0.181507 -0.0472583 4.35915 4868946
-0.346377 -0.0311413 4.42532 8885671
-0.284046 -0.0374897 4.39398 9215923
-0.26997 -0.0445862 4.3627 6579828
-0.296461 -0.0341856 4.41154 8425892
-0.284046 -0.0374897 4.39398 9215923
-0.259317 -0.0300107 4.42511 11515325
-0.112909 -0.0391989 4.38316 7634054
-0.0732221 -0.0403802 4.41026 7963019
-0.319031 -0.0323463 4.4151 9280687
-0.320679 -0.0313369 4.37987 12109007
-0.288459 -0.0376276 4.30673 11780818
-0.259317 -0.0300107 4.42511 11515325
-0.190607 -0.0379783 4.3563 3288885
-0.121597 -0.0374813 4.39122 10858682
-0.313249 -0.0266434 4.40291 12964057
-0.0968386 -0.0341507 4.36906 6515571
-0.0615471 -0.0309989 4.41948 4475477
-0.330187 -0.0249384 4.44418 12635606
-0.307391 -0.0242054 4.41474 13029341
-0.299282 -0.0243187 4.41626 9543606
-0.288403 -0.0280972 4.39437 12767967
-0.194804 -0.0318833 4.35308 5330012
-0.334714 -0.0257698 4.33477 11780299
-0.311289 -0.0245025 4.37903 12701148
-0.271977 -0.0288807 4.33869 12635354
-0.255117 -0.0264179 4.37238 11846095
-0.0868913 -0.0269047 4.40959 9080981
-0.0728427 -0.0263064 4.43433 5331045
-0.0306981 -0.0249376 4.43881 5726573
-0.287768 -0.0229531 4.38154 8754600
-0.272186 -0.0288045 4.33901 12635354
-0.116975 -0.0265287 4.376 8752791
-0.0743232 -0.0267486 4.37737 7369340
-0.27468 -0.0176198 4.38224 7306642
-0.250036 -0.023178 4.35548 9936035
-0.190872 -0.0252076 4.35787 3158847
-0.103363 -0.0246168 4.39309 10462896
-0.328785 -0.0146904 4.43001 13029593
-0.116447 -0.0222261 4.39531 9739942
-0.0898563 -0.0144458 4.41634 6250857
-0.287649 -0.0152484 4.39098 11518417
-0.27468 -0.0176198 4.38224 7306642
-0.264543 -0.0176267 4.37065 9346217
-0.212307 -0.0218053 4.34007 5201005
-0.0859098 -0.0179047 4.40633 8949397
-0.275628 -0.0118971 4.39732 7635605
-0.133882 -0.016426 4.36991 3554119
-0.30901 -0.0129856 4.37817 8227741
-0.261895 -0.0134466 4.36472 4541792
-0.120164 -0.0171129 4.37676 9673377
-0.112855 -0.0179322 4.36967 10727096
-0.0898563 -0.0144458 4.41634 6250857
-0.0828952 -0.0169521 4.39579 8225160
-0.35365 -0.000759543 4.48246 10792631
-0.278727 -0.00137885 4.44607 7043720
-0.241833 -0.0149248 4.3597 4873328
-0.325427 -0.0111683 4.36136 11450818
-0.259595 -0.0184213 4.26137 5989235
-0.259595 -0.0184213 4.26137 5989235
-0.197475 -0.0090811 4.35931 2634047
-0.118479 -0.0122941 4.38195 8292755
-0.0906126 -0.00950086 4.40145 8553096
-0.079577 -0.00949106 4.40047 5066070
-0.304715 -0.00121277 4.46218 7371405
-0.299726 -0.00566687 4.37682 6385024
-0.194301 -0.0130331 4.34486 3029325
-0.13947 -0.0108622 4.34993 5199716
-0.255267 -0.0551608 3.87248 7700364
-0.325409 0.0228274 4.58534 8359065
-0.287497 -0.00381922 4.37795 4412010
-0.246603 0.000397485 4.37457 13292766
-0.361918 0.0114356 4.48564 9148066
-0.307479 0.00131587 4.39248 5989498
-0.219345 -0.00636541 4.3577 2631726
-0.32532 0.0227445 4.58467 8359065
-0.300437 0.00553447 4.3968 9149357
-0.273015 0.000704883 4.36134 2303280
-0.264935 0.00093401 4.37909 9278359
-0.247146 -0.00428439 4.32086 13753058
-0.246573 0.000381091 4.37448 13292766
-0.273015 0.000704883 4.36134 2303280
-0.235655 0.00154507 4.35898 10789798
-0.138706 -0.000298436 4.3697 3751755
-0.301485 -0.013133 4.18116 10004407
-0.277096 0.00752468 4.39266 4540240
-0.165044 0.00211944 4.36427 4083298
-0.0922546 0.00322482 4.40687 8225162
-0.332913 0.0131065 4.43063 10595510
-0.113803 0.00508793 4.38486 4343895
-0.324709 0.0197736 4.44009 5660781
-0.286304 0.0132846 4.40664 12372948
-0.274399 0.00554659 4.34334 12964571
-0.156041 0.00589832 4.36963 2305603
-0.029605 0.0132607 4.45635 5528164
1.28942 0.196352 6.39698 6773329
-0.252368 0.00582035 4.3137 10004153
1.27621 0.232236 6.62003 11043427
1.28042 0.216185 6.51474 10455663
-0.367248 0.0304544 4.50835 10990784
-0.310929 0.0230185 4.3711 10332594
-0.2574 0.0106617 4.3445 11188168
-0.252187 0.00577434 4.31369 10004153
-0.194034 0.00903042 4.34317 4998987
0.883349 0.190899 6.12816 7097920
-0.331655 0.0238146 4.429 5858166
-0.303897 0.0214577 4.42653 11385805
-0.234116 0.0117883 4.33453 10858685
-0.097106 0.0144745 4.39614 5593708
0.849818 0.186953 6.07679 8025711
1.25529 0.245472 6.63168 11240801
-0.277312 0.024772 4.40907 6450814
-0.259983 0.0152776 4.35469 10136253
-0.254894 0.017246 4.37106 8753831
-0.246957 0.0140506 4.35077 9740469
-0.145026 0.0143665 4.36852 2565419
1.33735 0.237863 6.53109 6510933
-0.178045 0.0150332 4.34376 5459797
-0.126868 0.0205175 4.4079 4675175
0.854121 0.195412 6.0528 9595469
1.27039 0.223108 6.39188 6510933
-0.327843 0.0312376 4.42079 11516612
-0.29914 0.0126751 4.28825 10924735
-0.249281 0.0209825 4.36595 4675435
-0.241607 0.0171593 4.33946 7437972
-0.228229 0.0169004 4.34032 4146001
-0.118027 0.0200061 4.38091 3424082
-0.334249 0.0321292 4.42681 7504273
-0.323104 0.033485 4.42129 9542569
-0.190515 0.00603277 4.22967 3882053
0.107021 0.0417572 4.58223 7963273
-0.378913 0.0561974 4.60299 9543084
-0.147322 0.0246021 4.3789 4542303
-0.141352 0.017648 4.32237 3552316
0.891056 0.221813 6.12583 8018242
1.19369 0.234955 6.29626 7104355
-0.343488 0.0358021 4.41816 7042692
-0.314421 0.0329554 4.39863 12898782
-0.294797 0.0300803 4.38347 8492458
-0.17867 0.0234584 4.34107 5267316
0.0835262 0.0440692 4.55438 5132889
0.103657 0.0464433 4.57291 6321800
-0.260479 0.0281172 4.35865 5401476
1.21839 0.275946 6.43321 6906718
-0.32755 0.0385816 4.40165 11451076
-0.291573 0.0369854 4.38698 5530232
-0.280599 0.034551 4.37846 5531521
-0.265712 0.0333248 4.36819 3622229
0.890019 0.235943 6.10973 11245184
-0.304708 0.0364332 4.36991 12241368
-0.254851 0.0317362 4.36449 4083559
-0.15867 0.0313808 4.35461 3621203
-0.128752 0.0353988 4.39634 4408139
0.134172 0.0655707 4.64614 6846083
0.850271 0.240193 6.05726 6248528
-0.354389 0.0514726 4.47344 11450822
-0.345432 0.048721 4.43435 11714507
-0.237938 0.0336669 4.35375 5399935
-0.211237 0.0331049 4.35475 3293273
0.940677 0.255074 6.15689 8092019
-0.304708 0.036433 4.3699 12241368
-0.28742 0.0431145 4.3809 8361128
-0.134126 0.036297 4.35229 4543073
-0.360256 0.0608753 4.48933 7239301
-0.346486 0.0573033 4.4392 8162461
-0.328328 0.0494186 4.39375 10991043
-0.389785 0.0719326 4.47913 7962768
-0.307332 0.0519392 4.39644 5529973
-0.290592 0.0482353 4.37439 4807536
-0.133862 0.0435912 4.36674 3618882
0.0140415 0.0554978 4.4726 5395543
0.0248887 0.0561402 4.48427 3619908
-0.33411 0.0542597 4.40371 8160658
-0.326178 0.0540418 4.40529 10201013
-0.250304 0.0441501 4.359 3885408
-0.103362 0.0481455 4.39344 4080979
-0.315335 0.0566025 4.40647 10002604
-0.307665 0.0518009 4.37154 9082788
-0.258804 0.0504499 4.36932 2962506
-0.389894 0.0719927 4.4793 7962768
0.918942 0.294865 6.16279 7105382
0.929006 0.287645 6.11719 5721158
-0.289195 0.0558702 4.34847 10268352
-0.283279 0.0535272 4.3591 9675699
-0.348268 0.0679657 4.43754 7107455
-0.299 0.0562615 4.36635 8623014
-0.239401 0.0360204 4.24322 3290692
0.88151 0.289557 6.04381 8226951
0.923641 0.297127 6.09802 5326142
-0.329355 0.0677476 4.42154 7370626
-0.299006 0.0562665 4.36637 8623014
-0.0925784 0.0630877 4.41217 5855070
-0.0662546 0.0630133 4.42175 6251887
-0.352362 0.079117 4.47395 10463408
-0.336318 0.0736375 4.39379 7831695
-0.315427 0.0690384 4.38906 6253700
-0.309471 0.0689921 4.39863 10663110
-0.269353 0.0620362 4.35861 13030107
-0.200652 0.0621702 4.371 5264222
-0.288856 0.0830541 4.45488 8425626
-0.375818 0.097207 4.54505 6779267
-0.322231 0.0730697 4.40303 5859194
0.113893 0.0887358 4.56482 5791075
-0.379835 0.078482 4.41165 7502218
-0.336488 0.073748 4.39416 7831695
-0.302808 0.0703141 4.38146 13161700
-0.194174 0.0655901 4.3682 3683390
0.148638 0.100928 4.62489 5396824
1.07058 0.367166 6.40757 6184280
-0.313025 0.0706996 4.37572 8161434
-0.315157 0.092339 4.49678 12109528
-0.274976 0.0699246 4.36148 11384773
-0.245602 0.0686974 4.35847 4144453
0.0138103 0.0857332 4.48074 9937834
-0.0805677 0.0779297 4.41318 5856103
-0.41608 0.115538 4.58908 10861003
-0.3234 0.0749164 4.35901 8819623
-0.245861 0.0687796 4.35857 4144453
-0.248823 0.070755 4.34768 9078927
-0.131549 0.0942614 4.47138 3421508
-0.132519 0.0717853 4.36505 5462891
-0.263964 0.0750957 4.35617 15331572
-0.249067 0.0741349 4.35062 12109523
0.0779287 0.1139 4.53965 8358544
-0.34745 0.0968502 4.46224 10266031
-0.249144 0.0741816 4.35078 12109523
0.0171851 0.0904442 4.4723 8885405
1.03865 0.389358 6.33479 6384741
-0.40331 0.118535 4.57066 5265000
-0.292875 0.0677451 4.30101 12701660
0.114672 0.11084 4.58315 6320254
-0.319688 0.088661 4.39394 11648976
-0.238688 0.0743296 4.31485 9674929
-0.224874 0.0848255 4.38268 13555936
-0.406309 0.130756 4.60472 4343384
-0.294388 0.094446 4.40733 11320266
-0.2656 0.0675043 4.2623 10135480
0.106261 0.111357 4.55646 7832207
-1.27164 0.74617 7.87404 12892839
-0.328785 0.0950628 4.40381 7831958
-0.274933 0.0813612 4.3328 9873079
-0.248001 0.0764345 4.31379 13950953
-0.119546 0.0849531 4.375 5856359
0.00346595 0.0990845 4.46013 11713474
-0.436541 0.135083 4.59277 8296875
-0.229497 0.0849119 4.34014 9411759
0.0779287 0.1139 4.53965 8358544
-0.388821 0.12482 4.52036 5857134
-0.319004 0.0977418 4.39122 6910597
-0.293572 0.0994724 4.40081 11912401
-0.211509 0.0830527 4.31897 13292251
-0.14945 0.0868631 4.34148 6183520
-1.23416 0.72632 7.62269 10132630
-0.44189 0.141055 4.59116 4214105
-0.222108 0.0849166 4.32527 10595259
-0.148393 0.0823807 4.31999 6183520
-0.29939 0.10178 4.37531 9808317
-0.262461 0.0920797 4.33629 11188678
-0.233769 0.0962767 4.36643 12043732
-0.226624 0.0887022 4.3293 13096418
-0.00630938 0.108126 4.45917 4928307
-1.28309 0.786098 7.81009 8226693
-0.256499 0.0968051 4.35258 9280683
-0.399698 0.138791 4.5527 5660271
-0.232286 0.0881994 4.27501 12109524
-0.205107 0.0963212 4.3405 11713224
-1.22458 0.707257 7.27843 8611921
-0.245504 0.0973517 4.32687 11451844
-0.239253 0.105366 4.32623 9280427
-1.207 0.720585 7.35499 7304306
-0.399351 0.155879 4.58329 4542047
-0.390634 0.145608 4.57125 7898776
-0.214739 0.105378 4.34939 10793666
-0.211827 0.0967696 4.32555 12503766
-0.279989 0.104978 4.3384 11583954
-0.255985 0.102815 4.32974 12635608
-0.227809 0.0984227 4.3132 11189191
-0.221193 0.098513 4.30279 9082797
-0.214769 0.10541 4.34951 10793666
-0.289087 0.107279 4.33671 7438230
-0.26689 0.10826 4.34545 9149353
-0.283489 0.167783 4.61124 11649488
-0.201028 0.105049 4.31503 12503508
-0.140409 -0.580729 4.82588 4339512
-0.33581 -0.580109 4.83995 2763052
-0.207696 -0.576853 4.82042 9742770
-0.241724 -0.517557 4.64334 8745573
-0.1223 -0.540959 4.75469 5858671
-0.205011 -0.525409 4.71347 2827302
-0.15263 -0.526151 4.70547 9547200
-0.261991 -0.515897 4.68006 13747128
-0.169934 -0.520464 4.70891 5199203
-0.100013 -0.520992 4.74584 4802899
-0.263124 -0.53129 4.79708 2829364
-0.236767 -0.496034 4.65958 12111579
-0.0933993 -0.503031 4.69788 9805482
-0.288047 -0.432644 4.55394 12307670
-0.25676 -0.454501 4.62598 13819365
-0.0911401 -0.455338 4.63281 10726071
-0.142769 -0.445464 4.62377 13226715
-0.115715 -0.4366 4.58593 12831702
-0.167615 -0.435491 4.61239 10529465
-0.157552 -0.418126 4.5406 9543086
-0.0230981 -0.453257 4.66496 9545653
-0.173982 -0.410619 4.54842 8885671
-0.147979 -0.397323 4.51249 9610166
-0.114228 -0.415195 4.58286 9345451
-0.0121483 -0.437334 4.66068 8359324
-0.126769 -0.388751 4.53572 12437201
-0.117543 -0.389916 4.61955 12634578
-0.0722565 -0.39376 4.58421 11385030
-0.0722476 -0.39368 4.58381 11385030
0.010285 -0.398334 4.65593 10596542
-0.149265 -0.36812 4.53611 8293789
-0.265694 -0.365851 4.55682 10134191
-0.223044 -0.354294 4.51275 11253700
-0.247054 -0.33219 4.54401 10265776
-0.180065 -0.32569 4.50178 9739943
-0.247054 -0.33219 4.54401 10265776
-0.28541 -0.324494 4.55028 10792375
-0.211813 -0.320057 4.50623 13554909
-0.110576 -0.322637 4.54814 5727349
-0.242297 -0.288428 4.38759 11187390
-0.267022 -0.304275 4.51291 13161178
-0.244942 -0.290835 4.47422 7832460
-0.113527 -0.291956 4.45231 14147303
-0.0619527 -0.29949 4.4929 4738903
-0.225814 -0.296616 4.4904 13621470
-0.206937 -0.288792 4.47433 14278374
-0.15561 -0.283229 4.45757 13621213
-0.0383335 -0.295724 4.52347 8555411
-0.283247 -0.285788 4.53457 10463667
-0.191095 -0.278826 4.47144 10726842
-0.166523 -0.278925 4.47122 14083305
-0.0981787 -0.275164 4.46128 5528170
-0.120217 -0.277079 4.49025 9609132
-0.0817899 -0.272652 4.45868 9872559
-0.0562281 -0.307303 4.71503 9807283
-0.0360406 -0.27595 4.51977 10793400
-0.243903 -0.260996 4.46921 5133923
-0.134981 -0.256693 4.42469 5595506
-0.118127 -0.260144 4.45168 7370631
-0.0524325 -0.272581 4.52281 5199456
-0.300335 -0.258169 4.50901 8426145
-0.264442 -0.246795 4.41809 8029584
-0.173564 -0.243096 4.45325 10333882
-0.147305 -0.255345 4.44093 10530235
-0.0507226 -0.257233 4.45079 4607579
-0.112039 -0.245358 4.46161 2044746
-0.00831602 -0.255189 4.52742 10991036
-0.257421 -0.23471 4.46615 3294036
-0.248345 -0.234174 4.47392 12504532
-0.0312236 -0.242922 4.49567 9346727
-0.231636 -0.234631 4.48767 13161175
-0.261865 -0.224986 4.46447 2896187
0.207618 -0.274727 4.8994 9215135
-0.16569 -0.222163 4.44964 6120557
-0.257093 -0.211025 4.46843 10266796
-0.182137 -0.210394 4.42318 10594480
-0.102476 -0.214162 4.46526 2895927
-0.0776273 -0.220276 4.52201 5462881
0.00628269 -0.215067 4.53078 4277582
-0.0661024 -0.205895 4.48148 3224636
-0.227187 -0.160782 3.92419 8885405
-0.213191 -0.193178 4.38638 14345194
-0.0311132 -0.202977 4.48051 11188676
-0.304406 -0.18897 4.40471 7106418
-0.266699 -0.195477 4.47325 8291722
-0.174634 -0.162799 4.10383 9739942
-0.174734 -0.18802 4.39686 5659233
-0.335122 -0.183708 4.5337 4998981
-0.100219 -0.183363 4.41128 5725544
0.0441721 -0.191068 4.64338 10465205
-0.377505 -0.173527 4.54665 11319494
-0.308531 -0.180919 4.56362 9345445
-0.0439857 -0.177019 4.45279 11516872
-0.32752 -0.170477 4.52813 13490402
-0.257411 -0.157693 4.38665 10070715
-0.15871 -0.166652 4.40951 7437707
-0.0540519 -0.174523 4.51063 5262156
-0.140962 -0.166973 4.44091 11254983
-0.126198 -0.166014 4.42629 5920602
-0.0171596 -0.169047 4.47249 9215661
-0.167364 -0.153998 4.37949 11056831
-0.0157314 -0.155933 4.46557 12240333
-0.101967 -0.147005 4.43286 8489875
-0.265543 -0.136107 4.41234 7766932
-0.193501 -0.137249 4.32365 12372181
-0.145931 -0.139993 4.38079 12240590
-0.0784691 -0.142752 4.42885 7963283
-0.406743 -0.131395 4.64416 9411234
-0.140895 -0.131223 4.39762 7767181
-0.0978087 -0.133332 4.42963 10793405
-0.295773 -0.125345 4.44357 13819620
-0.217217 -0.123807 4.31072 14279138
0.024183 -0.134408 4.48964 5395283
-0.218418 -0.120714 4.3329 14147809
-0.163749 -0.121556 4.39837 11845576
-0.0883264 -0.125406 4.42884 13028049
-0.33484 -0.114588 4.4668 9872306
-0.286273 -0.115847 4.43869 8622236
-0.0250817 -0.120395 4.45104 5990521
-0.180173 -0.111207 4.32917 4672600
-0.144347 -0.113269 4.00034 10070194
-0.131251 -0.109349 4.39402 3096143
-0.0881593 -0.111279 4.42537 8621975
0.415434 -0.127161 5.6788 10455673
-0.346437 -0.0982102 4.48887 12043211
-0.160724 -0.107671 4.34532 4804704
-0.102976 -0.105345 4.40848 10595765
-0.210523 -0.0994309 4.14745 8686486
-0.107666 -0.0967011 4.40245 9215146
-0.0366576 -0.0973789 4.45553 4936029
-0.276376 -0.084599 4.44144 3227473
-0.0365199 -0.0879951 4.45434 4673370
-0.1831 -0.0847807 4.28132 3229019
-0.117408 -0.0838344 4.40227 4476510
-0.0723607 -0.0821968 4.3895 6777716
-0.167528 -0.0778731 4.36869 1976891
-0.236917 -0.0728922 4.3569 4018535
-0.196255 -0.0741481 4.32517 4019052
-0.180051 -0.065529 4.3751 3426141
-0.039695 -0.0690534 4.4547 7568774
-0.0769741 -0.067371 4.42132 5659233
-0.317623 -0.0534773 4.46071 12502736
-0.102272 -0.0550878 4.39668 9214116
-0.078051 -0.0556005 4.42312 6186093
-0.274699 -0.050774 4.39332 7763841
0.295886 -0.0358552 4.94991 8489353
-0.120336 -0.0473387 4.39742 11385796
-0.0894438 -0.0507229 4.3648 6580077
-0.21108 -0.0379316 4.37224 3288629
-0.0745865 -0.038519 4.41696 8093833
-0.0771613 -0.0312678 4.41627 6382962
-0.255636 -0.026283 4.37376 11188679
-0.0651926 -0.0245305 4.41346 7041145
0.0243827 -0.0218218 4.5044 1974569
0.232579 0.00555411 4.82537 6054755
-0.354006 -0.00055741 4.48386 10792631
-0.241779 -0.0149509 4.35955 4873328
-0.12966 -0.0161728 4.39403 4078921
-0.111012 -0.0195464 4.38229 9674406
-0.0828952 -0.0169521 4.39579 8225160
-0.206142 -1.21459e-05 4.43244 2369585
-0.289346 0.00971431 4.42747 4019313
-0.323933 0.0211179 4.4316 6186355
-0.239344 0.00776371 4.33477 11910086
-0.295542 0.0197965 4.37367 11517645
-0.226651 0.0147406 4.34304 4736076
0.122864 0.0445124 4.60343 6452609
1.19888 0.244891 6.46093 7233370
-0.156465 0.0263675 4.38394 4147289
-0.327621 0.0386207 4.40179 11451076
-0.233393 0.0334511 4.3718 5268093
0.945164 0.248331 6.22312 12492666
-0.304721 0.0364385 4.36992 12241368
1.09825 0.297652 6.45968 8090730
1.18086 0.278204 6.37802 5983302
-0.316045 0.0458761 4.3897 6976645
-0.303494 0.0493029 4.39153 5727355
-0.343069 0.0632996 4.41949 7569817
0.918664 0.296825 6.12889 7304048
-0.315427 0.0690384 4.38906 6253700
-0.292564 0.0757294 4.3886 14279919
-0.00256206 0.0836617 4.4692 3355193
0.0138191 0.0857669 4.48095 9937834
-0.304828 0.0835531 4.39918 11583182
-0.265503 0.0736783 4.34527 14279659
-0.249137 0.0741774 4.35076 12109523
-0.222072 0.0761772 4.3485 12435391
-0.433647 0.128384 4.58485 8757169
0.964938 0.377228 6.17794 7304049
0.106004 0.118229 4.56613 9213084
0.170388 0.141382 4.68685 7307406
-0.245446 0.0862617 4.32306 13885671
0.170388 0.141382 4.68685 7307406
-0.215304 0.0915997 4.31362 11452112
-0.330429 -0.582663 4.82354 3549476
-0.174373 -0.559576 4.73003 8099494
-0.142636 -0.540976 4.76698 7571866
-0.1223 -0.540959 4.75469 5858671
-0.291806 -0.535701 4.8241 8741710
-0.107969 -0.473531 4.63791 11648715
-0.251504 -0.464839 4.64129 11913170
-0.132473 -0.468944 4.67619 12700373
-0.0745939 -0.440328 4.62706 12174540
-0.16428 -0.276249 4.43701 14608878
-0.0278567 -0.300376 4.53523 10068395
-0.297438 -0.278206 4.47104 9150374
-0.106998 -0.27544 4.45618 7964054
-0.333897 -0.252452 4.50207 3753044
0.197107 -0.238031 4.83633 4868678
-0.178741 -0.184826 4.39731 6975607
-0.120095 -0.171983 4.44997 5590090
0.00238417 -0.178561 4.50487 10530486
-0.193382 -0.139483 4.34527 12042959
-0.152518 -0.117413 4.37492 9609132
-0.214561 -0.103706 4.29006 11188159
-0.130534 -0.105093 4.38842 2898764
-0.0327194 -0.0947016 4.45466 4739679
-0.196613 -0.0792451 4.26236 4610416
-0.176904 -0.0748052 4.34823 1976376
-0.0396931 -0.069055 4.45466 7568774
-0.359646 -0.00600812 4.59782 12175312
-0.138075 -0.0273075 4.39826 4079433
-0.111019 -0.0195438 4.38232 9674406
-0.323283 0.0124714 4.43532 6779260
-0.252265 0.00326014 4.3372 13423839
-0.302788 0.0273935 4.38608 11122630
-0.274984 0.0446757 4.39547 4477024
-0.247685 0.0724027 4.39719 4077634
-0.217857 0.0788001 4.33761 12898778
-1.29143 0.762001 7.73177 11513244
0.159778 0.155299 4.6861 9872043
-0.190527 -0.525006 4.66735 3291976
-0.187007 -0.391166 4.23689 6515055
-0.104805 -1.13342 6.67526 6449001
-0.053763 -0.545238 4.74992 6435867
-0.216356 -0.524668 4.73592 6846867
-0.205486 -0.526221 4.73251 4081238
-0.172453 -0.532333 4.77143 12702430
-0.114206 -0.523707 4.73097 3027774
-0.228179 -0.483884 4.65325 14148332
-0.0890025 -0.483484 4.66345 12437462
-0.172268 -0.474701 4.62505 10069430
-0.326541 -0.544333 4.92228 3681579
-0.333699 -0.50989 4.84798 9935263
-0.331661 -0.456595 4.72833 13095125
-0.347434 -0.474439 4.78259 9413811
-0.198399 -0.431269 4.58046 10857398
-0.262431 -0.436115 4.62245 10989499
-0.347452 -0.474469 4.78272 9413811
-0.289662 -0.368577 4.39211 12107979
-0.192428 -0.430161 4.60974 12173770
-0.182436 -0.415133 4.56081 8423831
-0.1456 -0.439843 4.66727 11583436
-0.139587 -0.416405 4.56283 13095645
-0.323306 -0.440055 4.7036 9345708
-0.277063 -0.526619 5.0928 11253184
-0.284887 -0.404141 4.59932 10989759
-0.178308 -0.375326 4.459 11582151
-0.163019 -0.511742 5.1021 12305611
-0.0987511 -0.38969 4.50649 11450566
-0.284887 -0.404141 4.59932 10989759
-0.299559 -0.377889 4.51038 12175320
-0.018922 -0.394757 4.55607 8227475
0.00823336 -0.418185 4.68805 7832977
-0.300268 -0.381989 4.54924 9281458
-0.320529 -0.518697 5.18363 10135732
-0.183227 -0.379796 4.52641 8884126
-0.177974 -0.439673 4.82929 10397616
0.0684058 -0.475965 4.96361 6780033
-0.225762 -0.449309 4.90122 11975621
-0.100934 -0.378221 4.55347 8226198
-0.00927975 -0.40703 4.68707 11056320
-0.371925 -0.404929 4.77457 7634830
-0.117532 -0.389818 4.61904 12634578
-0.320599 -0.404697 4.73091 11386058
-0.117472 -0.389042 4.61506 12634578
-0.0232976 -0.404735 4.751 12239819
-0.290434 -0.368392 4.57064 10595516
-0.292955 -0.38182 4.65312 10200240
0.0480979 -0.415076 4.78729 6319479
0.0491536 -0.416684 4.79542 6319479
-0.069605 -0.368203 4.55933 8292764
-0.224614 -0.344044 4.47106 8752792
-0.0479767 -0.360468 4.54733 10594997
-0.0128468 -0.381348 4.63948 8688029
-0.120624 -0.34918 4.49953 12766167
-0.0637601 -0.355793 4.54289 12437200
-0.072239 -0.352183 4.54475 7239561
-0.214511 -0.341856 4.50908 12305611
0.108328 -0.431121 4.91616 6449774
-0.127402 -0.333964 4.50054 8689321
-0.31996 -0.356708 4.59784 11714505
-0.210005 -0.338489 4.51199 13292249
-0.131286 -0.39079 4.77355 13818080
-0.127402 -0.333964 4.50054 8689321
-0.0474253 -0.342645 4.54385 7633804
-0.158348 -0.325507 4.48299 10859202
-0.0762383 -0.332024 4.5222 10725554
-0.108559 -0.329668 4.51818 9345705
-0.167172 -0.364421 4.76356 13818851
-0.0338386 -0.311516 4.43927 9016995
-0.319656 -0.321613 4.54413 12701399
-0.222233 -0.317615 4.50599 13424608
-0.111063 -0.31071 4.45518 7307404
-0.314537 -0.31398 4.54353 13687779
-0.292332 -0.307808 4.50253 14475232
-0.0474118 -0.312571 4.52584 7765124
-0.326576 -0.312498 4.54456 7371654
-0.308638 -0.31967 4.58821 9872300
-0.158076 -0.281971 4.34108 6978189
-0.0474118 -0.312571 4.52584 7765124
-0.147026 -0.328053 4.64315 13424350
-0.18044 -0.299523 4.47358 13162211
-0.0155379 -0.315148 4.55868 8359067
-0.282894 -0.274047 4.34992 7437189
-0.141916 -0.294912 4.46214 9017248
-0.39756 -0.336027 4.79337 4869723
-0.189993 -0.248593 4.18291 10200754
-0.0140771 -0.328029 4.64713 7897742
-0.346499 -0.329861 4.75446 5857136
-0.276947 -0.296463 4.51511 9478058
-0.0215817 -0.290541 4.53853 8357520
-0.355316 -0.319586 4.72262 7768216
-0.257539 -0.288998 4.48799 9477030
-0.0106884 -0.316669 4.65381 11911626
-0.151215 -0.279669 4.46095 11055290
-0.1177 -0.277086 4.40902 12042699
-0.336063 -0.272003 4.437 10662075
-0.195035 -0.274084 4.43197 10923962
-0.109256 -0.3002 4.59027 10333886
0.140777 -0.346434 4.91119 7502713
0.15959 -0.348675 4.91843 9020346
-0.357705 -0.293131 4.62835 10136505
-0.310105 -0.276785 4.50366 11253697
-0.0628153 -0.272433 4.45273 7173762
-0.129241 -0.270555 4.45149 7701395
-0.331472 -0.266738 4.51568 7371141
-0.279618 -0.269774 4.4725 11450302
-0.138712 -0.267959 4.45604 11188675
-0.155724 -0.268216 4.46108 10265517
-0.126677 -0.240281 4.27746 9214121
-0.301526 -0.261771 4.48861 9281198
-0.0112886 -0.271445 4.52685 11189447
-0.123969 -0.252199 4.40941 7108229
0.15203 -0.314693 4.88798 6383721
-0.124044 -0.252232 4.40979 7108229
-0.336845 -0.25492 4.51633 3490389
-0.309193 -0.231391 4.32584 6515065
0.0984426 -0.286851 4.71815 5594714
-0.233117 -0.242104 4.42359 11978447
0.188218 -0.297629 4.89547 8424847
-0.226838 -0.241512 4.42341 12832472
-0.0663757 -0.2501 4.47604 3291974
-0.116306 -0.249394 4.53221 3360865
-0.374964 -0.242151 4.5367 6647166
-0.331916 -0.232848 4.46754 2698809
0.0084953 -0.261923 4.63343 5264739
-0.233117 -0.242104 4.42359 11978447
-0.337187 -0.23314 4.4816 5331818
0.0815565 -0.254487 4.64799 4408900
-0.428941 -0.253951 4.75259 11057350
0.169555 -0.279257 4.88156 7504519
-0.372639 -0.234994 4.5794 3489614
-0.184666 -0.2236 4.4448 12305610
-0.438461 -0.272161 5.06276 4673113
-0.1316 -0.225515 4.44159 3886176
0.186011 -0.263783 4.87396 4014661
0.191783 -0.266277 4.89992 4014661
-0.295633 -0.215311 4.48947 3817028
-0.13029 -0.222555 4.50546 3424076
0.0452879 -0.240749 4.66549 8951196
-0.358796 -0.216356 4.51681 5594731
0.023951 -0.230319 4.60428 7896195
-0.385581 -0.213945 4.56526 7107715
-0.117028 -0.203338 4.36398 2368554
-0.369602 -0.213013 4.6415 10595513
0.14876 -0.233214 4.77267 6585222
0.192106 -0.245413 4.8744 8888748
-0.482389 -0.237524 5.05709 6118244
-0.293686 -0.246058 4.95346 6448490
0.132482 -0.226822 4.7514 5661287
-0.233155 -0.19589 4.40999 10793403
-0.186563 -0.191131 4.39657 7766161
-0.175569 -0.19783 4.41495 6581108
-0.0430812 -0.221327 4.67636 2830391
-0.369374 -0.205499 4.58487 11385028
-0.358321 -0.204707 4.63978 3094340
-0.289089 -0.195002 4.49929 3817032
0.227205 -0.230464 4.88973 9210758
-0.309605 -0.192542 4.50389 12107973
-0.164291 -0.188232 4.41352 8489878
-0.379932 -0.193561 4.59554 3750721
-0.186298 -0.178631 4.39498 5659493
-0.149053 -0.184 4.43774 11319745
-0.359267 -0.181844 4.5704 13294051
-0.185461 -0.172297 4.36026 6251886
0.184096 -0.197599 4.82021 4409418
-0.31526 -0.17593 4.52642 8621206
-0.192289 -0.161572 4.34725 9279134
-0.341261 -0.165512 4.53113 11648969
-0.222415 -0.158615 4.31913 13424350
0.0238747 -0.159728 4.39687 5594466
0.198725 -0.196579 4.8398 9150889
-0.379778 -0.161492 4.45655 9214117
-0.272322 -0.160899 4.46889 11583692
-0.0983176 -0.162346 4.37855 9606037
-0.232635 -0.15152 4.29799 14081765
-0.212239 -0.155064 4.33156 12371408
-0.173459 -0.15121 4.35748 11188160
0.0130579 -0.164862 4.48115 10004399
0.227954 -0.184311 4.85235 6373936
-0.383024 -0.152478 4.57726 11714507
-0.228161 -0.152321 4.29049 15002350
-0.150333 -0.155638 4.41417 11452105
0.0568891 -0.169278 4.60337 3686729
-0.191897 -0.149478 4.29437 8819103
-0.109461 -0.155749 4.44105 12437968
-0.416675 -0.152583 4.64019 8884898
-0.383024 -0.152478 4.57726 11714507
-0.173985 -0.153132 4.43726 8622241
-0.0989984 -0.153545 4.44651 9543076
0.171658 -0.168012 4.87887 5266785
-0.0442315 -0.155705 4.52924 11647938
-0.260743 -0.143592 4.35657 13162207
-0.145183 -0.149803 4.41357 9938869
-0.0402682 -0.14782 4.46213 11713222
-0.0822965 -0.149243 4.53114 8029328
0.0150314 -0.150258 4.47851 8819868
-0.206383 -0.140587 4.4059 11712958
-0.156604 -0.139453 4.39051 11517123
0.217773 -0.162043 4.83457 3615272
-0.244176 -0.132086 4.3333 13687781
-0.144312 -0.129548 3.97011 9345449
-0.40764 -0.131359 4.64884 9411234
-0.163597 -0.134131 4.36025 5725286
-0.332217 -0.128437 4.45421 11187650
-0.197051 -0.129809 4.30798 8293533
-0.0681807 -0.133742 4.48346 9739689
-0.351468 -0.116855 4.46338 9937580
-0.156752 -0.128157 4.40298 12569817
-0.132875 -0.127578 4.40235 12043467
-0.286511 -0.120412 4.43938 7965851
-0.326329 -0.113375 4.5523 11582922
-0.218518 -0.112644 4.26267 11976642
-0.276402 -0.108958 4.37785 8424601
-0.26202 -0.109636 4.41121 9280171
0.0059736 -0.114031 4.47415 3685699
-0.419299 -0.102964 4.56755 8884121
-0.371899 -0.100818 4.42578 7897487
-0.253962 -0.101985 4.36135 9345703
-0.0810929 -0.105517 4.42437 7370627
-0.0994478 -0.104077 4.41418 10332339
1.17792 -0.0506326 10.7456 5660003
-0.379589 -0.0932398 4.47133 10001572
-0.373056 -0.0855618 4.54108 10463155
-0.235659 -0.09536 4.3394 6711922
-0.213262 -0.0944248 4.31361 9410725
-0.314172 -0.0854392 4.46923 11845582
-0.187386 -0.097281 4.21359 5133925
-0.106458 -0.0945245 4.41025 9477804
0.312062 -0.0894777 5.02561 10458260
-0.340931 -0.0842754 4.45854 12109263
-0.448419 -0.0671053 4.63266 7307918
-0.155961 -0.0836522 4.35838 4873587
-0.155992 -0.0836431 4.35851 4873587
-0.143761 -0.081734 4.37172 4346208
-0.0855835 -0.0755759 4.45052 9344926
-0.349621 -0.0745658 4.2786 8687258
-0.322986 -0.0607436 4.40293 9082788
-0.122844 -0.0738458 4.40598 10661561
-0.375782 -0.0628764 4.49271 11121345
-0.348953 -0.064842 4.476 13752286
0.292097 -0.0611901 4.97344 8622745
-0.224235 -0.0709526 4.35171 2569031
-0.321153 -0.0618154 4.48445 12371922
-0.358828 -0.0543675 4.4932 8358812
-0.359659 -0.0512707 4.53426 11385029
-0.344664 -0.0546219 4.48828 12437713
-0.125893 -0.0609838 4.40654 12109521
0.227016 -0.0406286 4.79159 6316641
-0.373711 -0.0408452 4.48008 11451079
-0.117694 -0.0504725 4.42267 11715019
-0.373711 -0.0408452 4.48008 11451079
0.177143 -0.0367419 4.7885 4737357
-0.317724 -0.0394829 4.42959 7898002
-0.303917 -0.0393795 4.42416 11517647
-0.355347 -0.0308592 4.4753 7965084
-0.355347 -0.0308592 4.4753 7965084
-0.375395 -0.0291687 4.50664 10990015
-0.317006 -0.0338174 4.47776 8096157
-0.264229 -0.0353255 4.39642 12503768
-0.0732221 -0.0403802 4.41026 7963019
-0.404923 -0.020145 4.5575 7896710
-0.359743 -0.0504715 4.02481 6780035
-0.38427 -0.0221941 4.5346 8161429
-0.319031 -0.0323463 4.4151 9280687
-0.340803 -0.0236826 4.46271 9411245
-0.320711 -0.0313237 4.37995 12109007
0.179301 -0.0156955 4.76093 3290681
-0.299282 -0.0243187 4.41626 9543606
-0.272186 -0.0288045 4.33901 12635354
-0.3638 -0.0097071 4.50059 8753057
-0.190872 -0.0252076 4.35787 3158847
-0.374901 -0.0129394 4.43927 10923965
-0.328785 -0.0146904 4.43001 13029593
-0.287649 -0.0152484 4.39098 11518417
-0.261908 -0.0134426 4.36473 4541792
-0.289096 -0.0524439 3.94701 11254990
-0.112855 -0.0179322 4.36967 10727096
-0.30901 -0.0129856 4.37817 8227741
-0.408202 0.00626504 4.5899 10464440
-0.342361 -0.0002262 4.43859 9016483
-0.255239 -0.0552046 3.8721 7700364
-0.250694 -0.00729122 4.29495 14344933
-0.122704 -0.014231 4.31457 5594985
-0.348214 0.00747148 4.44785 9806765
-0.307479 0.00131587 4.39248 5989498
-0.365752 0.0141348 4.48516 11582403
-0.377425 0.0161156 4.45539 10003379
-0.377425 0.0161156 4.45539 10003379
-0.39026 0.0255327 4.54183 10003120
0.823145 0.18527 6.10588 4604482
-0.400578 0.0209435 4.41222 5463662
-0.366772 0.0301134 4.50615 10990784
-0.293486 0.0157595 4.39197 5197655
-0.252187 0.00577434 4.31369 10004153
-0.395515 0.0200869 4.40074 8491424
-0.401875 0.0216077 4.4149 5463662
-0.37904 0.0316662 4.48548 9016743
-0.37904 0.0316662 4.48548 9016743
-0.277312 0.024772 4.40907 6450814
-0.126868 0.0205175 4.4079 4675175
-0.376863 0.0394807 4.48469 10858942
-0.29914 0.0126751 4.28825 10924735
-0.147322 0.0246021 4.3789 4542303
0.863392 0.215966 6.12733 4864305
-0.129183 -2.59942 -15.7359 4083559
1.30711 0.325145 6.74536 10066833
-0.354389 0.0514726 4.47344 11450822
-0.949818 -2.83939 -17.174 3293273
0.823452 0.248197 6.09439 6975856
-0.389701 0.0580974 4.48525 9280428
-0.348627 0.0601045 4.46247 7964055
-0.427208 0.079568 4.58754 8030360
-0.315015 0.0453623 4.39608 7042439
-0.413731 0.081692 4.58746 8554390
-0.387421 0.0683291 4.50475 8357263
2.0752 0.739388 9.57958 7370360
-0.39101 0.0843318 4.54785 9476518
0.765494 0.267724 5.96578 4867397
-0.362452 0.0690032 4.45397 9806515
0.953105 0.28354 6.06201 6710625
1.24451 0.317303 6.32823 6579302
-0.434609 0.10204 4.61813 7242129
-0.398294 0.0785858 4.47349 9345449
-0.299 0.0562615 4.36635 8623014
-0.110103 0.057927 4.39655 4277068
-0.330096 0.0656798 4.37157 10266550
-0.430048 0.0928465 4.52247 8951978
-0.420266 0.104 4.59037 11912402
-0.118042 0.0670962 4.38865 5068647
-0.379835 0.078482 4.41165 7502218
-0.00256206 0.0836617 4.4692 3355193
-0.447984 0.111055 4.55484 6980508
-0.435668 0.131499 4.65006 4544106
-0.4238 0.0997766 4.44782 7967653
-0.316766 0.0455769 4.1678 9015970
-0.397213 0.116186 4.53838 4344407
-0.321092 0.0705004 4.30396 9346224
-0.422151 0.135678 4.6041 5201010
-0.428802 0.106119 4.48612 9021371
-0.107321 0.0799444 4.35806 3750984
-9.76887e+36 -4.34253e+36 -2.54176e+37 7304049
-0.406309 0.130756 4.60472 4343384
-0.365817 0.11566 4.52738 9674410
-0.2656 0.0675043 4.2623 10135480
-0.229497 0.0849119 4.34014 9411759
1.01621 0.426034 6.33661 10131097
-0.149669 0.0867885 4.34094 6183520
-0.44189 0.141055 4.59116 4214105
-0.0535883 0.0368845 4.06925 7304057
0.11014 0.128122 4.56128 8688801
-0.423477 0.141086 4.56155 3554124
-0.412046 0.138294 4.54859 9218755
-0.35314 0.117028 4.44032 8951464
-0.275052 0.11301 4.40238 12438486
-0.445379 0.158843 4.61814 9086389
-0.232286 0.0881994 4.27501 12109524
0.101976 0.138135 4.58628 5463915
-0.327563 0.107107 4.38867 7173514
-0.436557 0.143837 4.52946 4675690
-0.399351 0.155879 4.58329 4542047
-0.312944 0.110976 4.37897 8227486
-0.255985 0.102815 4.32974 12635608
-0.397484 0.137011 4.50407 7768994
-0.324079 0.116559 4.38825 7898517
-0.00162586 0.123806 4.45708 7567229
-3.04853e+37 -1.39485e+37 -7.08626e+37 6121837
-3.28193e+37 -1.44568e+37 -7.3335e+37 5663856
-0.434074 0.158494 4.57838 3753558
-0.441119 0.177161 4.64421 9151156
-0.387494 0.148585 4.5269 4016475
-0.227284 0.0981377 4.27728 9675701
-0.192948 0.107654 4.33987 11319236
-0.240728 0.0729839 4.14495 8557476
-0.146033 -0.00339032 3.77295 6841964
-0.380999 0.0950315 4.17054 7505303
-0.0850768 0.0225374 3.86542 6117496
-0.226203 -0.0487125 3.53013 14607068
-0.187601 -0.0366308 3.58822 10323831
-0.130385 0.0911794 4.14744 7826814
-0.360511 0.0126399 3.7703 8359584
-0.291357 -0.0208438 3.62636 5201272
-0.351253 0.0247733 3.80315 12111056
-0.220796 -0.0462587 3.52112 5593959
-0.391962 0.367196 5.09787 10660006
-0.23814 -0.0392599 3.53722 14603228
-0.280816 0.163879 4.32071 11384509
-0.273699 -0.0166025 3.61429 5524533
-0.209605 -0.0412481 3.5309 5791593
-0.326335 0.29049 4.79918 9807023
-0.343706 0.289321 4.73908 5790307
-0.313439 -0.01018 3.6215 3289689
-0.296122 0.0708265 3.91364 7569036
-0.102047 0.0234728 3.75841 6516867
0.334848 0.63148 5.66422 2893359
-0.205011 -0.525409 4.71347 2827302
-0.126769 -0.388751 4.53572 12437201
-0.188647 -0.367881 4.5135 10002860
-0.137957 -0.358168 4.50538 6318454
-0.245802 -0.376599 4.74135 14213607
0.00928428 -0.359558 4.633 6912138
-0.226126 -0.321182 4.48106 7765643
-0.281179 -0.308969 4.49786 14147814
