# .PCD v0.7 - Point Cloud Data file format
VERSION 0.7
FIELDS x y z rgba
SIZE 4 4 4 4
TYPE F F F U
COUNT 1 1 1 1
WIDTH 1277
HEIGHT 1
VIEWPOINT 0 0 0 1 0 0 0
POINTS 1277
DATA ascii
-0.00305498 -0.0721705 5.12277 11385029
0.0196627 -0.0709448 5.09281 8556448
0.0412606 -0.0705248 5.10053 6713733
0.0388174 -0.0705039 5.11025 11187651
0.0111261 -0.0707334 5.10399 14410215
0.0243662 -0.0702021 5.08912 12503506
0.0350891 -0.0703542 5.10708 11779785
0.0462076 -0.0699629 5.10686 6186602
0.0523503 -0.0709896 5.12517 8159875
0.0204639 -0.0701812 5.10673 9148589
0.0317577 -0.070088 5.1085 9017507
0.0372595 -0.0700296 5.10482 8819620
0.0530068 -0.0697754 5.12102 4869716
0.0654646 -0.0707096 5.1581 7372158
0.0768017 -0.0709676 5.18449 3352876
-0.00659886 -0.0712253 5.13502 9674410
0.0126417 -0.0696341 5.08879 10924994
0.0194026 -0.0693407 5.09158 12306903
0.0520154 -0.0698215 5.11856 12636376
0.0681515 -0.0704481 5.16758 3820622
-0.0226961 -0.0717907 5.17642 10395293
0.0155792 -0.0694249 5.09325 15133932
0.0177863 -0.0693876 5.09278 10004658
0.0462472 -0.0692739 5.11217 7568777
0.00735706 -0.069532 5.10919 10530750
0.0269435 -0.0691798 5.10064 12306894
0.0314041 -0.0690526 5.10839 12437970
0.0538617 -0.0689891 5.12899 9873584
-0.0279336 -0.0712168 5.18344 10389369
-0.00104164 -0.0698218 5.12787 12570070
0.00909859 -0.0692398 5.10414 12767192
0.0114963 -0.068606 5.09828 9872047
0.016592 -0.0683556 5.08882 11976126
0.0258423 -0.0668771 5.02668 5661300
0.0227862 -0.0681226 5.08638 4804442
0.0243904 -0.0682364 5.09494 7898520
0.0259909 -0.0681654 5.09157 7371140
0.0295907 -0.0682962 5.1143 5661292
0.0334264 -0.0685137 5.11974 11450819
0.0410689 -0.0680807 5.10892 8294040
0.0430022 -0.068041 5.10779 7766417
-4.06588e-05 -0.0687958 5.12391 9017512
0.0073198 -0.0683979 5.10395 8556445
0.00950863 -0.0683763 5.10335 8753829
0.0136651 -0.068345 5.09362 13291473
0.0143353 -0.0681696 5.09307 14213088
0.0344744 -0.0677586 5.11909 8491418
0.0453672 -0.0675604 5.11324 6187634
0.04644 -0.0675428 5.10624 3685699
0.0512942 -0.0672217 5.12204 3618627
-0.0252286 -0.0690747 5.17217 9805477
-0.00551158 -0.068193 5.13304 10002599
0.026382 -0.0672929 5.09897 8358033
0.0526883 -0.0670159 5.12164 9675692
-0.0162713 -0.0683087 5.15339 7699335
-0.00585767 -0.0677896 5.14345 12831957
0.0110422 -0.0674105 5.0992 10332340
0.0240677 -0.0669597 5.09469 4212049
0.0371538 -0.0668442 5.0997 7240840
0.053981 -0.0666231 5.12057 7370107
0.0252357 -0.0665918 5.08816 6581112
0.0326904 -0.0664112 5.10118 10201268
0.00282339 -0.0671677 5.12916 6517376
0.00855619 -0.0667008 5.10283 5134181
0.0159318 -0.0665647 5.09227 8820126
-0.00637419 -0.0666387 5.1394 9280423
0.00279036 -0.0666666 5.12016 7043721
0.0175921 -0.0660962 5.09078 8885149
0.0227352 -0.0661057 5.08467 3421503
0.0262689 -0.065972 5.09123 7174012
0.0370291 -0.065532 5.11001 9608357
-0.00112624 -0.0661595 5.12567 9016229
0.00948425 -0.0660277 5.11322 7767445
0.0116034 -0.0660033 5.11299 7041401
0.0151214 -0.0655123 5.08733 8488070
0.0317086 -0.0654284 5.10136 9346474
0.0330095 -0.0655791 5.10688 7175048
-0.013841 -0.0658246 5.15565 10463155
-0.0047111 -0.0654846 5.12668 10464441
-0.00119307 -0.0655491 5.13251 11516875
0.0862697 -0.0638861 5.20701 9273215
0.0316317 -0.064813 5.10128 9543081
0.0363906 -0.0648386 5.11117 10331564
0.0371926 -0.0645219 5.10385 7436158
0.0439242 -0.0645678 5.11301 3293265
0.0512248 -0.0644717 5.11534 11781065
-0.0260027 -0.0653127 5.16927 11119791
-0.00731396 -0.0650007 5.13033 7963797
-0.00605056 -0.0650434 5.13145 12504534
0.0289738 -0.0642462 5.10807 4476764
-0.0143656 -0.0644468 5.14811 11055810
0.00110865 -0.0641696 5.12317 11451340
0.00505719 -0.0645865 5.10988 9215408
0.03495 -0.0638576 5.10565 5925237
-0.0105888 -0.0640313 5.14215 12829897
0.0118084 -0.0640966 5.09189 4347498
0.0253062 -0.0637985 5.09161 4873587
0.0200196 -0.0635572 5.09019 5596797
-0.00590914 -0.0630947 5.1305 9807022
0.0209012 -0.0631699 5.09447 4611701
0.0391181 -0.0628258 5.10348 5661293
0.000569604 -0.062904 5.11771 7832980
0.0140359 -0.0628942 5.10605 4348013
0.0267746 -0.063124 5.0935 4346470
0.0306124 -0.0621018 5.10498 10398906
0.0405952 -0.0622206 5.10809 7568262
-0.00338118 -0.0620004 5.13587 9214375
0.00316548 -0.0625993 5.1191 8623270
0.0271128 -0.0621455 5.10221 3288882
-0.0142361 -0.0616589 5.14722 11120833
-0.00692076 -0.0618768 5.13165 14081251
0.0335138 -0.0622665 5.09998 8358034
0.0910621 -0.0581125 5.22293 7236721
-0.0323388 -0.0610664 5.18625 7505299
-0.00504607 -0.0615393 5.12985 9741231
0.000237005 -0.0616213 5.12369 8950689
0.0157474 -0.0621724 5.09148 3161942
0.00202684 -0.0613791 5.11742 11977941
0.0185178 -0.0619879 5.08451 2570059
0.0272482 -0.0610073 5.10738 3552566
0.0284103 -0.0614618 5.10238 10924989
0.0304522 -0.0613124 5.0882 8885670
0.0372716 -0.0604994 5.10938 7698817
-0.00923806 -0.0602035 5.13699 8293276
-0.00688951 -0.0603314 5.13134 12569559
-0.00572837 -0.0603647 5.12963 12897750
-0.00116725 -0.0605235 5.12309 12897750
0.00414649 -0.0608067 5.11762 12439517
0.028962 -0.0602642 5.10313 12109265
0.0380463 -0.0598486 5.10261 5267052
0.0617534 -0.0585855 5.1391 7901344
-0.00465222 -0.0597743 5.12752 11649227
0.0002557 -0.0603408 5.11896 11647687
0.018513 -0.0603451 5.08929 3488840
0.00614698 -0.0599796 5.10883 9014424
0.0584745 -0.0578786 5.1319 6647666
0.0748124 -0.056227 5.17174 9348003
0.0789024 -0.0558119 5.18176 6712170
0.0896319 -0.0549186 5.21124 6708828
0.048586 -0.0586529 5.10921 3356988
0.0734721 -0.0554915 5.17436 9014401
-0.013003 -0.0576729 5.14105 11714251
0.0367355 -0.0586825 5.10626 5067614
0.0787838 -0.0542279 5.18369 7569280
0.0315848 -0.0582058 5.0998 9149091
0.0728882 -0.0544653 5.17632 3484200
-0.00202236 -0.057408 5.1256 9345446
0.0348863 -0.0575434 5.11015 5857638
0.0591048 -0.0559561 5.13124 8821667
0.0671528 -0.0547919 5.15431 8490893
0.081976 -0.0530365 5.1908 4339506
-0.00991303 -0.0566698 5.13606 11583951
0.00730501 -0.0576563 5.11009 6646134
0.0771247 -0.0530057 5.185 3553590
0.0819753 -0.0524393 5.1958 6711909
-0.0127574 -0.0560466 5.14167 10858428
-0.0106233 -0.0560411 5.13557 10793152
-0.00914473 -0.0562566 5.13615 8030620
0.00917285 -0.0572824 5.10657 3880251
0.0500502 -0.055927 5.12201 5003362
0.00744261 -0.0572364 5.10447 9478585
0.0359064 -0.0571946 5.09753 7962506
-0.0193514 -0.0545931 5.15598 7896454
0.0102765 -0.0569405 5.09771 11580598
0.0325211 -0.0567386 5.09946 7042175
0.0490811 -0.0555572 5.11528 4740443
-0.00530292 -0.0552723 5.12648 9345453
0.030524 -0.0561017 5.10549 7634056
0.0311775 -0.0559561 5.10492 10595765
0.0696154 -0.0522447 5.16468 3158064
0.0500097 -0.054456 5.12183 4477787
0.0598803 -0.0539927 5.13154 9347241
-0.0185086 -0.0532735 5.15601 7830920
-0.00298858 -0.0550721 5.12032 12636120
0.016819 -0.0558576 5.10329 4935764
0.0490317 -0.0542225 5.12284 1844271
0.0714504 -0.0514352 5.16277 4276294
-0.00914161 -0.053386 5.13752 11451334
0.0341026 -0.0549893 5.10368 9015960
0.0351471 -0.0546481 5.10906 8159886
0.0703353 -0.0509287 5.16389 7110540
0.0626299 -0.052207 5.13782 7373968
0.0653425 -0.0516941 5.14549 2829878
-0.00320733 -0.053579 5.11738 12766164
0.0374458 -0.0536632 5.10795 4212304
0.0426705 -0.0535058 5.11215 5594475
0.00561798 -0.0542261 5.1007 11715283
0.0172654 -0.0551113 5.08809 5200748
0.0554154 -0.0519138 5.12573 3488319
0.0615712 -0.0509602 5.13863 6121838
0.0725037 -0.0492636 5.16159 5466491
0.0308046 -0.0532908 5.10442 10924989
0.0636021 -0.0504517 5.13976 6714241
0.0733093 -0.0487925 5.16133 5727346
0.0336299 -0.0534537 5.10049 6250344
0.000319225 -0.0514134 5.12626 7174284
-0.00526616 -0.0514579 5.12197 9016739
0.0199195 -0.0536494 5.08666 3160910
0.0691265 -0.0468085 5.16484 4805461
0.0507434 -0.0505095 5.11602 3224894
133109 42018 508137 4865598
467248 141834 1.69223e+06 6572348
0.0694867 -0.0459323 5.16446 4477529
-0.0104434 -0.0490472 5.13407 11582404
0.00894751 -0.0509182 5.10695 14082021
0.00656714 -0.0507611 5.10707 2105899
0.0327287 -0.0509694 5.09806 8290955
0.0417518 -0.0501354 5.1042 3751752
0.0609906 -0.0476622 5.13018 5792100
0.0785385 -0.0428293 5.18322 4934739
210152 73451 802362 4602161
122832 42045.6 459040 9344917
609697 205175 2.23916e+06 8686732
37226.8 12470.9 132718 5851715
-0.0354269 -0.0422877 5.19233 4941179
0.0080409 -0.0512672 5.09073 13030621
0.00794905 -0.0497521 5.10671 10069940
129323 42877.3 452939 11966584
6.31699e+07 1.68341e+07 1.734e+08 8418915
0.032053 -0.0495038 5.10339 3884888
0.0999094 -0.0362489 5.2353 7038820
96145.9 34909.9 361905 7831673
3.21315e+07 9.19089e+06 9.17605e+07 7563610
-0.0104681 -0.0465482 5.13556 11451334
0.00351269 -0.0490092 5.1087 4539469
0.0661052 -0.0447068 5.14402 7043453
64259.3 22253.4 222388 7361348
-0.0119441 -0.0462325 5.13502 9082278
31683.6 11284.8 111424 7828331
-0.0318757 -0.0413834 5.18057 8758195
0.00582305 -0.0479156 5.1116 5530224
0.0285322 -0.0490002 5.09645 4413550
0.0580553 -0.0461451 5.12244 6974832
0.0709094 -0.0420089 5.16293 7308436
144973 56644.2 553625 5127218
9.666e+06 2.7265e+06 2.6145e+07 6642520
0.00499974 -0.0481472 5.10591 9479608
0.0615348 -0.045036 5.12915 8359577
28722.1 10426.1 98969.8 13606765
0.010714 -0.0482855 5.1008 5333364
731351 293630 2.76352e+06 7962749
456115 178134 1.67549e+06 4536376
85663.5 26732.3 252479 10257258
3.33894e+07 1.07208e+07 9.8718e+07 6837584
0.0535332 -0.0447202 5.12617 5067867
0.0712568 -0.0407013 5.16255 7243671
-0.012719 -0.0443752 5.13297 11253444
0.0251055 -0.047108 5.10445 4937316
0.0365091 -0.0464777 5.10558 6053223
0.0672794 -0.0410241 5.15374 8956080
48166.1 18434.8 165609 7360827
44485.9 13584.3 122206 7432806
-0.0146981 -0.041921 5.14931 10266552
0.0557362 -0.0444303 5.1214 5133146
85326 35785.6 318999 7698032
2.04141e+06 677226 6.00383e+06 6378832
35404.2 10901.4 95608 6051412
634525 268502 2.33134e+06 4864310
3.20789e+07 1.07366e+07 9.27261e+07 8223094
77801.3 24766.8 215541 6840413
-0.0126962 -0.0424171 5.13982 9871530
106268 46452.6 400143 7764085
45790.4 18347.3 156409 10392198
1.69716e+07 6.09055e+06 5.19435e+07 13280884
0.0104599 -0.046242 5.09989 4874361
35924.5 15048.2 125534 6313551
36818.1 11708.7 96941.1 5656138
0.0167255 -0.046721 5.09483 3293018
475366 209688 1.74664e+06 6845039
52635.3 21126.4 173919 8092277
5.91257e+07 2.18892e+07 1.78277e+08 9674142
-0.00347484 -0.044703 5.11228 8820385
0.0022594 -0.0444895 5.10959 8360100
0.0661075 -0.0399472 5.14443 7574177
4.39466e+07 1.67861e+07 1.36167e+08 6312774
3.00237e+06 1.03409e+06 8.35041e+06 6052182
0.000688987 -0.044722 5.10481 6055544
0.0205076 -0.0452746 5.09906 5267831
50618.8 21172.1 171727 6643551
14847.6 5976.68 47658.5 7304563
-0.00478665 -0.0432325 5.11679 7437196
539050 184918 1.45922e+06 5791068
-0.0232196 -0.0362604 5.1685 8554390
0.0483483 -0.0429212 5.11068 3422529
50556.2 23688.1 185153 7896187
32073.7 14308.3 111338 7237480
7.85308e+06 2.95424e+06 2.27261e+07 9081233
-0.000311903 -0.0441637 5.10322 8621210
325885 152410 1.1731e+06 8425357
24373.3 10294.1 79041.5 7368814
245923 100105 774585 7434600
904589 337046 2.56255e+06 8752530
-0.0227871 -0.0365617 5.15887 10466241
0.00103421 -0.0433985 5.10461 10529975
0.032576 -0.0428108 5.10725 5989232
4.97317e+06 2.02461e+06 1.53872e+07 8685957
675160 245313 1.83371e+06 8556697
-0.0124741 -0.0393902 5.1332 10397359
-0.00270963 -0.0419238 5.11353 9544620
34227.4 15244.5 113155 5523267
-0.00898761 -0.0405072 5.12438 9872308
-0.00456152 -0.041015 5.11918 10661822
0.00211064 -0.0414753 5.11376 7505306
0.049276 -0.0402593 5.12025 5462111
24071.3 10344.5 75477.3 5788238
148897 56382.9 409469 5524036
47439.6 17596.2 127624 6116691
95293.8 34593.5 251956 7305081
-0.0195655 -0.0360123 5.15313 8556706
0.00172933 -0.0418798 5.10834 10070459
134630 64621.5 468739 7698811
27649.8 12871.6 92836 8292232
33328.6 15189.4 109483 5326142
242833 103390 742841 5657931
0.0305669 -0.042847 5.09893 4342348
0.0328119 -0.0426002 5.10046 6316137
0.0631979 -0.0358651 5.14611 3224632
30795.5 12847.9 91592.2 8291457
450296 176718 1.24783e+06 5523781
31450.8 11763.7 83670.1 5328200
49293.2 23806.6 166272 6577493
67947.7 30515.7 213558 7962242
104430 40481.3 280118 8754595
-0.0230681 -0.0318572 5.17367 7502216
-0.0131979 -0.0370456 5.13604 6647424
-0.0012378 -0.0415113 5.10403 10332601
0.0179121 -0.0422369 5.09796 5264479
38617.8 19582.6 135050 6316129
97758.9 43312 298639 5063739
90549.6 36982 254114 9542297
-0.0248127 -0.0323554 5.1694 11714766
0.0464115 -0.0400053 5.10769 10463405
0.0587194 -0.0377776 5.12346 6055018
-0.023702 -0.0302666 5.17601 6712187
0.00314791 -0.0402184 5.10782 13951726
0.00381421 -0.0401998 5.10791 13885933
0.0638522 -0.0359104 5.13321 5265495
54469.4 23420.5 157492 8949127
288710 119838 808522 9936281
440667 176060 1.18704e+06 7241097
0.0105605 -0.0406674 5.10321 3815746
0.0442875 -0.0395731 5.10619 3091764
0.0459743 -0.0385775 5.11443 5592408
251900 110842 738659 5458758
182855 78263.8 519060 5130308
-0.027166 -0.0294306 5.17682 6517384
-0.00926232 -0.0372663 5.1236 6251893
88830.4 46588 309349 7170923
36202.7 17366 113567 7435892
35767.1 16501.1 107739 7502195
-0.0233464 -0.0306051 5.16658 10795211
-0.00429149 -0.0377911 5.11743 11648458
0.00960814 -0.0398999 5.10277 12899038
0.0649486 -0.0340533 5.1376 6779769
0.0685995 -0.0319534 5.15249 3421239
91342.6 37389.5 242367 5330005
0.0596441 -0.0352851 5.12743 5462879
146064 69648.8 446911 7700091
31321 14498.5 92158.4 7698549
42779.1 18422.9 116800 7767184
-0.022076 -0.0315307 5.15546 4611446
-0.00964661 -0.0360625 5.12503 9477290
0.00995411 -0.0392647 5.10255 9873336
0.04503 -0.0360738 5.12148 3882306
0.0470286 -0.0380703 5.10826 9214112
0.0652221 -0.0333345 5.137 6845049
49143.2 26103.4 164738 6514015
39651.6 20799.4 131177 4930612
813486 414345 2.63535e+06 6450019
-0.019206 -0.0309118 5.15462 4213082
-0.00421229 -0.0367827 5.11691 8359587
0.0317758 -0.0395107 5.09788 6251119
0.059638 -0.0345143 5.12747 6385788
49487.1 24343.2 151227 7633013
-0.0229726 -0.0302252 5.1576 10334662
-0.0212271 -0.030576 5.15613 7635353
0.0135824 -0.0370799 5.11339 14016230
0.0270006 -0.0386222 5.10161 3619399
0.0308856 -0.0397703 5.09429 3750726
32345.7 17698 108923 6973284
1.06421e+06 519574 3.19286e+06 8291968
0.00622832 -0.0393511 5.09697 11189965
0.00999131 -0.0381701 5.10208 13820139
0.0460455 -0.0377168 5.10409 4673886
3.47399e+06 1.80328e+06 1.09495e+07 8620163
26792 12852 78381.6 4474949
-4.17402e+07 2.28677e+07 1.41243e+08 12565416
-0.0119203 -0.0333543 5.13192 9805221
0.00535854 -0.0371436 5.1082 9740723
21149.4 10704.5 64932.8 5194559
-0.0255365 -0.0263474 5.17334 5002861
-0.0184485 -0.030205 5.14929 9279397
0.0186113 -0.0384391 5.09706 6051416
0.0547948 -0.0345964 5.11812 8688023
0.0681649 -0.0289416 5.15263 8890554
26100.9 12753 75942.3 5130053
40048.3 18362.7 109300 9016213
213884 95821.9 570420 4936277
0.0155577 -0.0371548 5.10195 13556452
0.0308637 -0.0372849 5.10053 5922665
-0.0304073 -0.0253789 5.1723 5727602
0.0252727 -0.0378741 5.09631 6249570
0.0475205 -0.0348832 5.11313 9148579
0.0597912 -0.0332046 5.12154 4276037
25594.6 12731.1 74064.2 5328206
30384 14664.1 85806.8 6710368
-0.0269915 -0.0266909 5.16251 4147539
-0.0189424 -0.0292144 5.14616 6978706
-0.0115374 -0.0317048 5.13333 9543086
0.0276281 -0.0367397 5.10099 3947590
0.0439219 -0.0356673 5.1065 5059895
0.0468497 -0.0344969 5.11336 5002851
0.0561236 -0.0313747 5.13131 8095630
0.0562371 -0.0327659 5.12314 7373970
0.065543 -0.0291711 5.14386 4736580
6.68033e+06 3.6081e+06 2.08906e+07 11580873
46777.9 23198.6 133524 8620678
-4.16535e+07 2.32007e+07 1.3569e+08 9081229
-4.48574e+07 2.58342e+07 1.5083e+08 4803662
0.0458431 -0.034091 5.11371 11254727
0.061042 -0.0299423 5.13718 9149607
1875.8 1144.69 6531.92 11973033
65461.9 34569.8 196940 9736097
-0.0209235 -0.0276076 5.1524 9218498
0.0104643 -0.0382857 5.08724 11715277
0.0464978 -0.0337896 5.11339 5924211
0.0474897 -0.0338546 5.11298 4606548
-7.97648e+06 4.51952e+06 2.58318e+07 10984322
0.00685827 -0.0354562 5.10065 12899805
0.0188536 -0.0596589 4.96351 9737883
-1.84852e+07 1.08044e+07 6.0484e+07 6844011
0.0116971 -0.0350297 5.101 10596798
0.01574 -0.0373398 5.08396 9082797
0.00232843 -0.0342332 5.1015 8096159
0.00658922 -0.034243 5.10009 12438485
0.0132764 -0.0344135 5.09823 9675699
0.0192237 -0.0356967 5.09133 11384259
-5.15714e+07 3.12312e+07 1.63079e+08 7232581
0.0182328 -0.0565939 4.97596 7495265
0.01575 -0.14438 5.18081 9677751
0.0173918 -0.133234 5.15529 3090731
0.0226289 -0.131302 5.15211 5923440
0.0310194 -0.128644 5.14658 5394510
0.0369252 -0.132505 5.16015 6962725
0.00602711 -0.138816 5.18131 2893616
0.0150583 -0.135659 5.18756 13950690
0.0209299 -0.124685 5.15001 13753056
-0.00199035 -0.13377 5.1857 11912914
0.0363899 -0.118185 5.1391 12305869
0.0138843 -0.121074 5.15404 11058377
0.0324814 -0.113471 5.12627 12964058
0.0339948 -0.114386 5.14318 12109520
0.0434029 -0.112306 5.14042 10268604
0.0399777 -0.110446 5.13392 9674925
0.0201735 -0.110264 5.13332 9541795
0.0299098 -0.112716 5.14679 13292507
0.0264194 -0.107691 5.12737 8029848
-0.0169211 -0.123777 5.19896 12437711
0.0146336 -0.108212 5.13444 11583947
0.0178204 -0.107907 5.13324 13028561
0.0365747 -0.103026 5.12026 8096154
0.0128113 -0.106147 5.13697 14673900
0.0217024 -0.104619 5.13091 8029076
0.026815 -0.101851 5.11534 14081508
0.0392173 -0.10555 5.1365 7634324
0.0170678 -0.104533 5.13215 11122375
0.0471621 -0.103023 5.13097 6978442
0.0659399 -0.117136 5.20598 3353903
0.0300718 -0.10151 5.12345 8952232
0.0189816 -0.101031 5.1254 13818337
0.0528601 -0.103112 5.14408 9021879
0.0302353 -0.0969274 5.11021 7043721
0.0171157 -0.100295 5.13046 10201524
0.00542348 -0.100003 5.13831 9280678
0.024033 -0.0949677 5.11177 7043210
0.0445598 -0.095669 5.12614 9873328
0.0370186 -0.0929154 5.117 10267056
-0.00759519 -0.100951 5.16678 10003118
-0.000299105 -0.0982147 5.14899 6122357
0.00945378 -0.093216 5.11805 12370631
0.0189997 -0.0925617 5.11427 14542059
0.0274267 -0.0913103 5.10985 10793403
0.0292838 -0.0929399 5.11758 9016740
0.0314084 -0.0933209 5.11949 10200495
0.0682809 -0.0994778 5.18126 2829616
-0.00761595 -0.0957816 5.14373 12372435
0.0287816 -0.0903337 5.11055 6121593
0.0308248 -0.0901621 5.10953 7831438
0.049891 -0.0936278 5.13828 7832721
0.00242536 -0.092728 5.13069 8558245
0.0267514 -0.0896666 5.10935 10135222
0.00630109 -0.0912996 5.12539 5068904
0.0307707 -0.0879746 5.11293 1715524
0.0489486 -0.087463 5.12823 11518409
-0.00226332 -0.0885017 5.13084 10860737
0.0207533 -0.0842851 5.10616 14080735
0.0427789 -0.0833458 5.12434 2897472
0.0507266 -0.0830423 5.13286 8820641
0.043994 -0.0805641 5.10954 11584976
0.0746021 -0.0873294 5.19188 4014400
0.0556777 -0.0817342 5.13702 3420465
0.065115 -0.0836782 5.16016 6518912
-0.015592 -0.0852663 5.17343 4077884
0.0357544 -0.0815885 5.1382 5266279
0.0487998 -0.0798603 5.11931 1843758
0.0326287 -0.0767841 5.0843 5660521
0.0467585 -0.0785089 5.12056 9346723
-0.010622 -0.0806372 5.14021 11846093
0.0156582 -0.0767572 5.09646 13621215
0.0214901 -0.0768276 5.09383 6054765
0.0493861 -0.0775962 5.11844 10794169
0.059081 -0.0795212 5.15315 8821143
0.0674271 -0.0803313 5.17659 9479853
0.0292658 -0.0760311 5.10606 5854809
0.0318831 -0.0755151 5.10362 6052443
0.0808837 -0.0788997 5.19595 7228982
0.0133412 -0.0744093 5.0941 14542316
0.0567175 -0.0762076 5.14687 3026221
0.0738327 -0.0778225 5.18255 6583161
0.0172896 -0.0737962 5.09894 14673384
-0.0147815 -0.0763769 5.15117 11977679
0.0627306 -0.0743768 5.15006 3158065
-0.0206042 -0.0762298 5.1692 10793143
0.019902 -0.0724073 5.09786 12174803
0.0238709 -0.0716466 5.10568 5791337
-0.0226527 -0.0744674 5.18649 8688025
0.0176027 -0.0696015 5.0885 13555932
0.024388 -0.0696955 5.09577 12175055
0.0291797 -0.0698465 5.10438 12439000
-0.00197369 -0.0705854 5.13561 12174541
0.0646697 -0.0685234 5.15869 2960939
0.0263053 -0.0674456 5.09266 8357777
-0.0228749 -0.068424 5.18244 7831434
-0.00704228 -0.0676186 5.13701 11977675
0.0515364 -0.0659063 5.11485 12045527
0.0599818 -0.0660845 5.14232 7899527
0.067829 -0.0660943 5.16869 10005420
0.0370492 -0.0653573 5.11047 9148063
-0.0111639 -0.0652313 5.14899 7832463
0.0551717 -0.0645558 5.12805 3817289
0.0658606 -0.0630134 5.15598 7176582
0.037002 -0.0632683 5.11006 5856871
0.0912596 -0.0606915 5.22966 5593698
0.0234916 -0.0630226 5.09622 1779512
-0.0101294 -0.0621645 5.13929 11319491
0.0249694 -0.0620338 5.09346 4150382
0.0852928 -0.0582028 5.21025 5263694
0.0913852 -0.0577418 5.23045 10138043
0.0290548 -0.0609732 5.10167 11321037
0.0617534 -0.0585855 5.1391 7901344
0.0322156 -0.0594577 5.09635 9149095
0.0918469 -0.0539322 5.22758 8292488
0.0642918 -0.0564578 5.14607 2762280
0.0765918 -0.0547489 5.18459 9544099
0.0932568 -0.053096 5.21891 9477531
0.0865711 -0.0528473 5.20121 3879985
0.0328519 -0.0566493 5.11107 7240836
0.0748598 -0.0529963 5.16981 3682610
-0.00605132 -0.055667 5.1265 9806515
0.000698159 -0.0557535 5.10988 12964314
0.0321493 -0.0547825 5.10463 10528688
0.0371796 -0.0548159 5.10066 6843509
0.0485937 -0.0541054 5.11481 1843497
0.062288 -0.0521917 5.13812 5726829
0.0767235 -0.0500007 5.17042 8426381
-0.00450723 -0.0518923 5.12591 11779011
7.02613e-05 -0.053267 5.10923 8358041
2.15691e+07 6.56267e+06 8.05103e+07 9864053
0.0162262 -0.0511483 5.11377 2435378
552708 174342 2.05816e+06 4670531
0.0115734 -0.052052 5.09416 13556452
563568 194260 2.09891e+06 8160644
3521.93 1328.95 13220.1 6580331
244824 87928.5 874916 6314064
2.07539e+07 6.12837e+06 6.02128e+07 8354156
0.013987 -0.0484405 5.1006 4408911
108815 39568.3 378668 8542015
983602 313145 2.85917e+06 6773334
34838.5 13762.2 117922 12230012
5.4289e+07 1.94573e+07 1.65544e+08 12689265
35261.3 10964 92837.9 6115657
0.0652299 -0.0405759 5.13921 7244703
1.04688e+06 407562 3.35782e+06 7434604
1.90197e+06 666952 5.49055e+06 5850945
692027 254822 1.96734e+06 8158590
0.00876417 -0.0427097 5.1095 3555154
0.0040554 -0.0421452 5.1088 9019057
45508.7 20873 152802 7237999
17694.6 7876.41 57847.1 5787975
0.0690084 -0.0341178 5.15228 2893866
130203 57385.8 398327 5196092
649350 265712 1.82623e+06 9476246
63973.2 25459.2 176365 8819341
33432.2 13046.2 90301.8 7371658
143805 73951.9 500759 6579294
-0.00738789 -0.0382787 5.11675 7964053
-0.00397399 -0.0381129 5.11769 10267577
0.044961 -0.0381751 5.1148 3289914
0.046961 -0.0382888 5.11394 9083553
0.0686753 -0.0332978 5.14593 8163228
-0.00502692 -0.0376724 5.11564 11121335
36217.3 15820 100334 8094084
33997.9 14351.3 91835.8 4998719
4.47053e+06 2.16156e+06 1.35116e+07 6777189
0.0462167 -0.0354867 5.1138 10858425
0.0605084 -0.0318953 5.13404 8621718
2076.81 1226.46 7279.35 13155507
-0.0107786 -0.0324247 5.13197 9805742
0.0819683 -0.0207646 5.19554 3486519
-8.56491e+07 4.78232e+07 2.72312e+08 11579809
0.0154583 -0.0366292 5.09648 11978197
0.0454685 -0.0326993 5.11361 11714503
-2.73341e+07 1.60862e+07 8.61277e+07 7626051
0.0196067 -0.149738 5.19641 8822962
0.0257531 -0.148413 5.19262 4995636
0.0248024 -0.15678 5.23528 6847373
0.0474754 -0.123005 5.1651 9543337
0.0567588 -0.114555 5.17289 9610924
0.0512411 -0.102153 5.13518 8757674
0.0329048 -0.095159 5.10828 12438232
0.0431817 -0.0966561 5.12741 9937323
0.0401808 -0.092214 5.12824 3752528
0.0232609 -0.0886926 5.11077 4346727
0.0101708 -0.0890329 5.11763 4018274
0.0413498 -0.0826803 5.1251 3160903
0.0730619 -0.0868694 5.17726 3291190
0.0326094 -0.079599 5.10427 5397350
0.0744223 -0.0828486 5.17491 3353385
0.0298952 -0.0772763 5.11214 5589320
0.046736 -0.0777626 5.12044 10069933
0.0594928 -0.0774394 5.14337 8293519
0.0388534 -0.0738851 5.09973 12701140
0.0774238 -0.0778886 5.18163 7294005
0.0712149 -0.0754515 5.17827 9089475
-0.00717364 -0.0706572 5.12987 9937324
0.0311181 -0.0687718 5.10236 11583431
0.0478095 -0.0688609 5.11809 5068123
0.0223711 -0.0671407 5.0781 4014156
0.0335595 -0.0658793 5.09564 9542308
0.0422666 -0.0645485 5.12077 4608609
0.0224828 -0.0622808 5.09136 1778739
0.0363184 -0.0608218 5.11074 5726311
0.0296795 -0.0595047 5.10075 9677244
0.0795804 -0.0511071 5.16692 4933960
0.0165651 -0.0516481 5.10144 2827300
0.0642351 -0.0483256 5.13617 3356735
3.1829e+07 1.17428e+07 1.00121e+08 13739635
1.0744e+07 4.24255e+06 3.01085e+07 6511701
23915.9 11891.6 79994.6 5195842
0.0469409 -0.037597 5.11383 7701901
-0.0172671 -0.0323647 5.14274 5199721
-0.447418 3.90431 -6.82109 6698005
-0.313049 1.25466 1.02868 6040855
-559194 -2.24664e+06 6.68945e+06 2628380
-183382 -755579 2.2637e+06 6310210
-0.216809 1.39018 0.584981 8342566
0.179982 -0.813377 7.15322 9195558
-1.59573e+06 -4.73453e+06 1.42331e+07 4989975
-0.140024 1.18619 1.16985 6895380
-189.075 -7154.32 21598.4 9988166
0.122455 -0.522598 6.31293 2892066
-163696 -824407 2.53445e+06 7290138
-0.381896 2.82637 -3.8869 7026199
64.4439 -2877.74 8836.67 2627347
74.7739 -1807.53 5549.97 9326888
-230.427 -18954.4 58614.8 2497307
-0.378423 2.65186 -3.45552 6632474
-165389 -845571 2.63886e+06 7420954
56.5577 -3524.25 10954.9 7774138
133.211 -442.123 1374.34 4793621
-1927.81 -39094.4 122460 1521452
-100.634 -6519.34 20400.5 7704482
79.6307 -1458.49 4561.2 5058595
-0.0320437 2.7032 -3.78652 8758191
-138955 -738101 2.36044e+06 7356448
-5993.76 -51589 164782 3746088
-3.11634e+06 -8.77299e+06 2.80892e+07 3285026
-2028.77 -25814.9 82671.4 10201777
0.0264754 -0.170726 5.27096 4803407
-14.4907 -483.904 1576.21 1842731
-0.0764478 1.19772 0.827806 8619143
-1.07813e+06 -3.48513e+06 1.1352e+07 6764318
-136.402 -1435.34 4713.85 3882311
-81602.5 -498685 1.65588e+06 10925757
0.0264885 -0.16878 5.27343 5399668
-0.30609 1.24621 0.580407 6698009
-294952 -1.25016e+06 4.18302e+06 14013900
-10340.4 -55847.4 187911 9413553
0.109301 1.0894 1.02331 4082012
-695622 -2.88948e+06 9.81596e+06 11183269
-24314.7 -112499 386244 2958891
-0.0717927 -0.624271 6.85244 8690093
0.307407 2.50728 -3.89216 13096160
-1.54396e+06 -6.13764e+06 2.11718e+07 9540253
-21235.7 -99995.9 347941 3617598
-0.0985599 3.1596 -6.26391 13687265
-1.39184e+06 -4.05327e+06 1.40924e+07 6043944
-967757 -3.5797e+06 1.26576e+07 3685969
-1.09455e+06 -3.81646e+06 1.36344e+07 8556193
-7875.93 -32528.5 116384 12702946
0.0397877 -0.164596 5.28222 11847383
0.0424656 -0.159792 5.26977 11845067
-4.72741e+06 -1.22155e+07 4.4481e+07 8674121
-4.61899e+06 -1.35983e+07 4.93662e+07 7899286
-3.09778e+06 -9.43755e+06 3.42123e+07 10664651
0.0244674 -0.153129 5.25429 10990790
-2.36537e+06 -5.63007e+06 2.10749e+07 5455936
-238077 -557796 2.11759e+06 8554121
0.0334137 -0.155914 5.27188 13028566
0.0392352 -0.128211 5.16833 11779785
0.0221039 -0.144425 5.23198 13687009
0.0307881 -0.137969 5.20905 12239311
-756431 -1.65769e+06 6.46011e+06 8887981
-629447 -1.40928e+06 5.55503e+06 10134194
-97850.4 -267488 1.04928e+06 10005436
-7763.17 -23402.4 92123 9937589
-133194 -338769 1.3446e+06 12438231
0.0275242 -0.146521 5.25073 9937588
0.0393973 -0.141124 5.2278 10462899
0.0190584 -0.143796 5.24137 13554907
0.0409576 -0.119613 5.1443 9543345
0.0435422 -0.122112 5.15508 9808315
-2.20749e+06 -4.40144e+06 1.76449e+07 10202813
0.0143067 -0.140539 5.23444 13357009
0.021637 -0.131164 5.19507 8884379
-2.1124e+06 -4.21009e+06 1.71463e+07 7240853
0.0134459 -0.134294 5.21019 10134962
-4.54447e+06 -8.60935e+06 3.55201e+07 6384251
-2108.85 -7009.85 29013.9 10528692
0.0509637 -0.13871 5.23459 10859976
-0.000523832 -0.136058 5.22971 10923454
-74.4502 -266.87 1151.01 12896723
0.0161979 -0.130429 5.20765 14278886
0.0184494 -0.121846 5.17077 14212580
0.0349513 -0.120223 5.16538 12897236
0.0544682 -0.13141 5.21332 6383219
0.0553425 -0.129896 5.20675 10532800
-1.31239e+06 -2.38026e+06 1.03649e+07 11254473
0.0159306 -0.133274 5.22357 14344164
0.0369078 -0.118136 5.16022 9476517
0.0592649 -0.134041 5.23103 5982795
-9.76643e+06 -1.59429e+07 7.02419e+07 9339510
0.05879 -0.134774 5.23696 6646645
0.06189 -0.135141 5.23718 10656925
0.701628 1.4876 -2.13725 12175062
0.00245466 -0.122877 5.19085 13424094
0.00511576 -0.122428 5.18874 10791605
0.0266002 -0.115808 5.15809 14081254
0.038087 -0.115416 5.1581 11976651
-5.00969e+06 -7.38391e+06 3.41851e+07 11184560
0.0259202 -0.119363 5.17988 9476263
-307019 -603387 2.81905e+06 12371410
0.0370013 -0.11537 5.16211 8884897
0.0202856 -0.11668 5.17079 10200244
0.0560701 -0.1203 5.18842 6053988
-4.63516e+06 -6.82885e+06 3.24903e+07 9803932
-15042 -29849.4 143298 10793151
0.00440267 -0.119497 5.19165 13949665
0.0306057 -0.108081 5.13468 8819108
0.0359196 -0.108624 5.13819 12832216
0.0494409 -0.116644 5.17814 10859452
0.0551779 -0.120664 5.19769 8159886
0.0688758 -0.132182 5.25375 8360354
-6.16037e+06 -8.24916e+06 4.04057e+07 13423320
0.00705009 -0.11858 5.1896 10659757
0.0295839 -0.106154 5.13012 13488606
0.0352432 -0.108265 5.14048 8555679
0.0101018 -0.128079 5.24066 13555678
0.0462444 -0.118819 5.19652 10922679
0.0549581 -0.115683 5.1844 8359582
0.00683172 -0.119553 5.20355 15133421
0.00223845 -0.119991 5.2086 11844291
0.0134479 -0.109415 5.15527 13883871
-27969.1 -49455.2 256483 9213863
0.0170276 -0.108242 5.15139 10201273
-3.98453e+06 -4.95579e+06 2.5971e+07 7172740
-55900.9 -90401.1 478511 9807027
0.0271943 -0.0976394 5.09946 12699598
0.0525821 -0.112834 5.17995 6912140
0.0649023 -0.121439 5.22557 2568242
0.0386998 -0.103556 5.1329 12173772
0.0411383 -0.102166 5.12539 8620698
0.0357306 -0.10049 5.11844 10330539
-1.31964e+07 -1.45873e+07 7.97357e+07 12764103
-0.00847399 -0.115372 5.20267 13423838
-0.00580023 -0.115299 5.20223 10069681
-3.97985e+06 -4.75673e+06 2.62674e+07 11122887
0.0186689 -0.107235 5.15893 14212325
0.0377694 -0.102995 5.13643 12699599
-0.000366416 -0.116642 5.21411 9806509
0.00963447 -0.108402 5.17064 9872820
-0.61163 0.593846 1.14855 4204836
0.0262351 -0.0986916 5.11881 6187389
0.0324883 -0.101478 5.13361 11713732
0.0331863 -0.0995265 5.12574 13884643
0.036819 -0.10204 5.14029 8688028
0.0147234 -0.0972144 5.11456 10200242
0.0183201 -0.0998548 5.13002 10662076
0.0229517 -0.0988571 5.12414 14476781
-8.99963e+06 -9.57328e+06 5.60772e+07 7898261
0.0255253 -0.0975351 5.12073 13425125
-0.00692098 -0.10732 5.18115 13358554
-0.00303986 -0.106823 5.18106 8886953
0.0285542 -0.0971142 5.12157 14476523
0.0225669 -0.0972249 5.12576 13489885
0.0352816 -0.0978284 5.12828 11253188
0.00829472 -0.095815 5.11932 13423834
0.0338183 -0.0928408 5.10157 12110037
0.00411013 -0.0990481 5.14228 13159891
0.020467 -0.0937476 5.1107 10266806
0.0306298 -0.0951095 5.11831 11910085
0.947626 1.01232 -2.17051 7766930
0.0217925 -0.0956563 5.12801 14015204
0.0415081 -0.0946317 5.1225 7239812
-0.00632408 -0.103922 5.18439 7304835
-1.89574e+07 -1.53461e+07 1.04604e+08 9594445
0.0278709 -0.0909944 5.10157 9741234
0.0338774 -0.0918258 5.10724 5594732
0.0457426 -0.0943778 5.12729 10726838
-0.0059305 -0.103065 5.18525 5790051
-1.98545e+07 -1.53683e+07 1.08373e+08 10780780
0.039076 -0.0951913 5.1385 9871271
-0.00486723 -0.0957726 5.14525 8094864
0.0249429 -0.0903609 5.10662 7566720
0.0297543 -0.089319 5.09917 9279394
0.0327091 -0.0882742 5.09399 9147558
-0.0115639 -0.10084 5.18696 6187897
0.000259571 -0.0990653 5.17577 10002860
0.0252796 -0.0896594 5.10652 5857133
0.0306722 -0.0884869 5.09791 9016227
0.044594 -0.0904833 5.11414 11386057
0.0362352 -0.088119 5.09891 11057855
-1.46282e+07 -1.07624e+07 8.12138e+07 13292248
-2289.29 -2270.98 17085.4 11385028
0.0123735 -0.0913649 5.12603 14411244
0.0182844 -0.0874034 5.09951 13358557
0.0300957 -0.0870865 5.0998 1977412
0.0328357 -0.0852376 5.08756 2372428
0.0550752 -0.0939249 5.15829 10663100
0.0384279 -0.0859319 5.09459 9544371
0.0447308 -0.0884725 5.11544 11911885
0.0419318 -0.0866387 5.10319 5594731
0.0280702 -0.0847845 5.08884 3624811
0.039461 -0.0850121 5.0923 9082792
-0.0140994 -0.0968663 5.19097 8818587
-0.0117202 -0.0969797 5.19198 5068903
-1.83535e+07 -1.07348e+07 9.66434e+07 5524046
0.0479247 -0.0877848 5.13259 8094604
0.014829 -0.0830412 5.08948 11977678
0.0358443 -0.0842311 5.1027 3756133
0.0959138 -0.106722 5.31489 9280936
-1.44208 0.717431 -2.72458 4345688
-0.00748669 -0.088642 5.15248 9608103
0.013848 -0.0822234 5.0905 13490917
0.0228597 -0.0858686 5.12838 8554639
0.0389108 -0.0830503 5.09952 4804440
0.0566137 -0.0914538 5.18245 7238009
-0.740368 0.325653 1.02832 4739671
-0.00155174 -0.0893563 5.16192 5988970
0.0311859 -0.0823032 5.09669 1844271
-0.0038145 -0.090044 5.17095 3093051
0.0022279 -0.0878964 5.15402 3419694
0.00702737 -0.090552 5.18124 11318461
0.0171436 -0.0802245 5.07662 12502221
0.0219277 -0.081021 5.08492 10791602
0.0845051 -0.0968442 5.25183 2962225
-0.00958036 -0.0921534 5.19949 4541270
-38651.6 -26435.4 271616 4606295
0.00842278 -0.0867747 5.15159 11055802
0.0303564 -0.0794103 5.07462 2039589
0.0192261 -0.0812409 5.09867 12305870
0.035383 -0.0818147 5.10576 4541270
-1.34392e+07 -6.62812e+06 7.19275e+07 4541022
0.0160063 -0.0789434 5.07196 12963800
0.0238119 -0.080928 5.09727 9542568
0.0268668 -0.0793371 5.07985 5264222
0.0852088 -0.0949403 5.25892 9216939
-313350 -190056 2.0757e+06 6316142
-0.00138531 -0.086922 5.16469 6578788
-1.32054e+07 -6.23764e+06 7.14185e+07 9938355
0.681872 0.330562 0.43872 13360100
0.0134379 -0.0798926 5.09222 10135474
0.0468704 -0.0809934 5.11305 5464429
-0.00246548 -0.0857133 5.16639 12437707
0.0194553 -0.0789308 5.08856 11386059
0.0145671 -0.0793707 5.09552 12371920
-1.50008e+07 -6.33126e+06 7.86386e+07 9281197
-53893.9 -31010 378359 3288628
0.0188237 -0.0763161 5.0665 11845067
0.0287488 -0.0781823 5.09149 5067100
0.0447216 -0.0785314 5.09935 3882046
0.0442979 -0.0783393 5.1012 8490390
-3.68012e+06 -1.60631e+06 2.17365e+07 7962769
0.0043444 -0.082952 5.16654 12570330
0.036966 -0.0779543 5.10463 3814716
-1.50025e+07 -5.63033e+06 7.94484e+07 11057088
-65678.4 -33344.8 460834 12833758
0.0179972 -0.0753339 5.0675 11976651
0.0273881 -0.0782706 5.11081 4471359
0.00886538 -0.0786225 5.11684 9411498
0.0136385 -0.0768946 5.09425 11647942
0.020816 -0.0759544 5.07882 8489367
0.0411615 -0.076878 5.0966 5130316
0.0481777 -0.0775559 5.10998 9085360
-17301.8 -7432.75 113219 10529467
0.901889 0.381462 -1.84293 14476523
0.00869988 -0.0764402 5.09656 13753316
0.0601734 -0.0802869 5.16273 7240055
0.0176575 -0.0745854 5.07039 15002095
0.0190334 -0.0745226 5.06953 12041669
0.0484862 -0.0761332 5.10979 10530745
0.0783251 -0.0824945 5.23242 6385266
0.0182188 -0.0738641 5.07707 12436688
0.021852 -0.0758082 5.10693 9344934
-0.000139919 -0.0776713 5.14437 12108238
0.0233428 -0.0735767 5.07509 11582407
0.0384095 -0.0741875 5.08853 9084077
-0.00863861 -0.0789805 5.17584 14805744
0.0154693 -0.0725815 5.06013 12699858
0.0411758 -0.07371 5.09179 12898266
-0.0184168 -0.0782654 5.16953 11517382
0.00639476 -0.0755899 5.12057 13951467
0.010787 -0.0738145 5.08623 13819364
0.0279259 -0.0739997 5.09559 10069682
0.0301428 -0.0735062 5.0891 12831957
0.0335741 -0.0734368 5.08513 12371407
0.0432489 -0.0733673 5.08832 11911882
0.00523404 -0.0752656 5.12125 14543346
0.0044492 -0.0749289 5.12178 14279660
-68931 -19909.5 418838 13095132
-0.014878 -0.0765342 5.16721 11779526
0.0224991 -0.07178 5.06601 8095899
0.0317706 -0.0731383 5.10243 8028557
0.078357 -0.0772365 5.2067 2569023
0.034708 -0.0719011 5.08102 8423057
0.0380093 -0.072159 5.08798 11978444
0.00943477 -0.0727082 5.09956 7371660
0.0125162 -0.071803 5.0742 9674930
0.0497168 -0.0724848 5.1067 9545903
-0.0142494 -0.0758431 5.17879 13292248
0.0178037 -0.0704798 5.05156 11515327
0.0382799 -0.0715298 5.08767 8029333
0.0463371 -0.0721541 5.10179 9412005
-741501 -158977 3.97862e+06 8096923
-413872 -92788.7 2.44388e+06 9803939
-0.0189835 -0.0758708 5.18476 9542566
0.012231 -0.0717314 5.08714 12766171
0.0185133 -0.0702325 5.05137 10988727
0.0189844 -0.0699906 5.05127 10397874
0.0238012 -0.0704345 5.06545 6250859
0.0217534 -0.0699505 5.05802 10858946
0.0275649 -0.0700073 5.06138 11318466
0.0316903 -0.0702665 5.07488 9148834
0.0856096 -0.0743915 5.23162 2367524
-0.0106101 -0.073352 5.15438 10134966
0.00189114 -0.0721088 5.12513 14609135
-0.00923615 -0.0735862 5.18461 14147819
0.00667984 -0.0711038 5.10519 8885921
0.0329872 -0.0699966 5.08598 11779528
0.0447759 -0.0696396 5.08235 5197646
-410984 -74333.2 2.45346e+06 8291728
-0.00956593 -0.0725339 5.15615 9478066
0.0126646 -0.0695929 5.06448 13424609
-0.0170909 -0.0731151 5.19174 11779274
-0.00745818 -0.0726321 5.18615 12832214
0.0289442 -0.0694892 5.08228 9343382
-0.019863 -0.072606 5.19029 8357529
0.0294959 -0.069172 5.08154 9673633
0.0363954 -0.0692369 5.0944 8555673
0.0421918 -0.0691981 5.09517 9278879
0.0496026 -0.0689388 5.10212 11781580
0.00830844 -0.0697574 5.10589 10792893
0.0437248 -0.0687577 5.08991 7305603
0.0130507 -0.0683316 5.07412 10201011
0.0245822 -0.0680764 5.06587 11385285
0.0400625 -0.0682829 5.0873 5397873
0.0477867 -0.0681633 5.09432 11055279
-17507.9 -1946.4 103435 8224393
-84.9863 -10.1455 529.673 9606301
0.018494 -0.0675647 5.04499 13489625
0.0200619 -0.0675382 5.04429 12305875
0.0263861 -0.0679256 5.07462 9806247
0.098788 -0.0699709 5.28506 12090960
0.0121712 -0.0677956 5.07479 8754084
0.037989 -0.0675854 5.09128 8621979
-312821 -25794.7 1.70243e+06 7897484
0.0172492 -0.0672286 5.05346 10133924
0.0477815 -0.0674075 5.09845 3685446
0.0229799 -0.0669758 5.05849 6712442
0.0251016 -0.0670202 5.06585 10263974
0.0343276 -0.0670785 5.10137 10199466
0.0405719 -0.0668733 5.08414 4344924
0.0100768 -0.0671957 5.10442 7897745
0.0165912 -0.0666576 5.03908 11843514
0.030772 -0.0666455 5.07882 10464436
0.0385216 -0.0666338 5.09045 7174018
0.0570634 -0.0662671 5.12585 7043966
0.00216442 -0.0671452 5.10949 8949661
0.0168868 -0.0664815 5.0461 12040376
0.0184734 -0.0664611 5.04553 12239305
0.0666158 -0.0660834 5.15996 9547451
-15693 -515.518 95904.7 11185846
0.0168752 -0.0660357 5.04633 7567226
0.024172 -0.0658463 5.0566 3094858
0.0341681 -0.0658812 5.0745 10132904
0.0359378 -0.0657239 5.0822 6317164
0.00308415 -0.0661041 5.11059 6911624
0.014757 -0.0659474 5.04815 9411238
0.0198155 -0.0657793 5.04523 5201006
0.085325 -0.064087 5.21765 4996149
0.0173784 -0.0654176 5.06199 8950945
0.027348 -0.0651318 5.07158 3488585
0.0331741 -0.0654424 5.09323 7567233
0.0981724 -0.0630959 5.27036 7435128
0.0367043 -0.0645412 5.08107 7699849
0.00655309 -0.0647802 5.07792 8360098
0.00954799 -0.0648711 5.0797 2172986
0.0585022 -0.0635402 5.12957 2566446
0.0969626 -0.0619055 5.25649 7964821
0.0376539 -0.0639666 5.07899 4542044
0.0483481 -0.0637894 5.09815 8294295
0.0237823 -0.063996 5.06759 1912132
0.0303271 -0.0637321 5.08156 4673371
0.0326466 -0.0637626 5.07711 6844286
-3.80408e+06 192805 1.91807e+07 6847113
-0.0160162 -0.0634059 5.16681 9343388
0.00696188 -0.0638402 5.09509 11254988
0.097387 -0.059482 5.26717 9147287
-50387.8 3442.4 293695 10790579
0.03722 -0.0627966 5.09702 8356492
0.0164488 -0.0635729 5.0666 4413294
-0.00498532 -0.0623726 5.14112 12766424
0.00802454 -0.0627514 5.09359 3420734
-37062.3 3702.34 223434 8029331
-0.0152768 -0.0615104 5.17085 11779527
0.0372744 -0.0621872 5.08111 8620689
0.0152869 -0.0628766 5.06909 3425366
-0.0159358 -0.0605703 5.17214 11844806
0.0279658 -0.0616674 5.08894 10135991
0.0370684 -0.0615786 5.08205 7831431
0.0330801 -0.0615628 5.07919 5660263
0.0801661 -0.0575136 5.19408 4075563
0.0123216 -0.0616355 5.08126 2500919
-104277 15263.6 587820 10264997
0.00960645 -0.061345 5.08249 5131091
-44568 7879.48 271632 5791082
0.0721295 -0.0564995 5.16161 10003619
-147737 26573.6 815235 8687257
0.0161559 -0.0604751 5.07981 2566714
-6.96338e+06 1.25377e+06 3.63498e+07 8355715
0.0956556 -0.052006 5.24095 9016976
-0.0120416 -0.0578903 5.14498 12305358
0.0281087 -0.0597053 5.07692 12436938
-2.58754e+07 4.55326e+06 1.16257e+08 8877422
-160192 33021.4 883769 7173244
0.00387276 -0.0589257 5.10035 9608366
0.0333994 -0.0592206 5.07984 5855840
-0.0213712 -0.0558343 5.17689 7634057
0.0930461 -0.0519864 5.20926 10521211
-6.17527e+06 1.29579e+06 2.97141e+07 8624549
0.00182801 -0.0582711 5.1011 8228772
0.0152847 -0.0607271 5.04332 3946301
0.0737364 -0.0531856 5.17351 9940148
0.0930607 -0.0509391 5.21377 6448753
0.0795705 -0.0521502 5.18286 7896957
0.0868377 -0.0507633 5.20806 6448740
0.0923639 -0.050753 5.20671 7630442
0.00346907 -0.0566031 5.12098 10268353
0.00786872 -0.0583035 5.08552 11846869
0.0302287 -0.0576463 5.08597 7896198
0.0787269 -0.0531326 5.15946 4804177
0.623195 -0.236235 1.40212 10661050
-0.000702633 -0.0562352 5.12227 10991304
0.0556137 -0.0552774 5.11408 8097430
0.0640895 -0.0547055 5.12225 4541777
-0.00613864 -0.0560221 5.1244 8161177
-0.00471912 -0.0559749 5.12488 9543602
-0.000300231 -0.0569294 5.1024 13094104
0.016326 -0.0580657 5.06903 4802382
0.0224609 -0.0576643 5.07445 5590607
0.0960061 -0.0471679 5.23518 6711655
-1.77876e+07 4.49871e+06 8.32024e+07 5662839
-61605.8 20317.8 383885 9673899
-0.0197797 -0.0514347 5.18752 11187909
0.031795 -0.0571961 5.07289 7566973
-0.0154646 -0.0530975 5.15077 8028562
0.00925955 -0.0564237 5.08675 12305618
0.0346168 -0.0563069 5.07751 8355206
0.0682156 -0.0503888 5.15571 3090478
-0.00721917 -0.0540455 5.12672 13555424
0.0049203 -0.0570444 5.07549 12240857
-0.00182873 -0.0548813 5.10653 10134707
0.0187623 -0.0573969 5.05842 4342866
-0.000560559 -0.054482 5.10718 10069169
-2.01805e+07 6.01912e+06 9.19178e+07 10991551
0.0131288 -0.056089 5.07334 4014675
0.019256 -0.0569 5.05837 5266286
0.00905111 -0.0566226 5.06471 11123661
0.0221971 -0.0561012 5.06537 4871526
0.0865173 -0.0449815 5.19814 9542302
-0.00978292 -0.0499354 5.15843 10529973
-3.69622e-05 -0.0533707 5.10844 7568783
0.0142389 -0.055537 5.07314 4807794
0.0174381 -0.0575258 5.04365 3555154
0.0056455 -0.0541596 5.08982 11254477
0.0203409 -0.0490238 5.14949 3687259
-0.00211799 -0.0509995 5.13122 10529723
-0.0103603 -0.0508559 5.12758 8424351
0.0566804 -0.0503214 5.10887 5857383
-0.00432202 -0.051635 5.10982 7107204
0.00862611 -0.0540347 5.07764 5136245
-1.04034e+13 -2.50118e+12 -2.67764e+13 7102036
-1.33233e+13 -3.12047e+12 -3.36883e+13 7562586
0.0121504 -0.0537248 5.07559 14937328
-0.0169558 -0.0462454 5.16237 7962774
-1.28318e+13 -3.27543e+12 -3.29578e+13 9738648
-1.34368e+13 -3.36444e+12 -3.41617e+13 9276041
-1.45791e+07 5.72719e+06 6.73234e+07 9810118
-0.000148513 -0.0499797 5.11222 6187129
0.0110621 -0.0567195 5.03231 3685710
-1.31718e+13 -3.51225e+12 -3.50881e+13 9738388
-1.31179e+13 -3.33665e+12 -3.28585e+13 7827556
0.00343641 -0.0511504 5.09318 9741751
-878991 432753 4.8714e+06 9806515
0.000145194 -0.0509256 5.09456 6581107
0.0278206 -0.0524198 5.07024 3818323
-410116 202713 2.21311e+06 10134450
0.012866 -0.0530192 5.06543 9937591
-1.38524e+13 -3.61238e+12 -3.38679e+13 7688771
0.0262827 -0.0516265 5.07309 3095633
-1.12282e+13 -3.08546e+12 -2.84945e+13 6311240
-1.68092e+13 -4.55824e+12 -4.20219e+13 9145734
-365809 190419 2.01468e+06 7305094
-0.0128946 -0.0461267 5.13608 8225682
0.0150058 -0.0524673 5.06411 9740464
0.0373536 -0.0493797 5.08911 4145998
-1.10206e+13 -3.2199e+12 -2.93012e+13 9210245
-1.12197e+13 -3.1692e+12 -2.87671e+13 6445912
-0.00114882 -0.0495186 5.09482 7241101
-1.13124e+13 -3.2223e+12 -2.87163e+13 6115144
-0.0105758 -0.0450175 5.13885 11715025
0.00808156 -0.0506589 5.08048 7438223
0.0194354 -0.0521807 5.06115 5722714
-1.08124e+13 -3.23719e+12 -2.81622e+13 5984075
0.0130321 -0.052586 5.05614 3492969
0.0252283 -0.0502944 5.07547 4542560
-1.55332e+13 -5.28476e+12 -4.5921e+13 7232852
-1.12321e+13 -3.26377e+12 -2.78201e+13 8553086
-1.41424e+13 -3.99432e+12 -3.42675e+13 7892064
-9.38607e+06 4.5535e+06 4.43395e+07 4809337
-1.34935e+06 718332 7.10806e+06 8490912
-26846.7 17350.3 166121 10463671
0.0222004 -0.0518887 5.05873 3883600
-0.0116465 -0.043659 5.14061 11122119
0.0135795 -0.0510853 5.06646 3753058
-9.2509e+12 -2.70894e+12 -2.23146e+13 9729630
-1.71138e+13 -4.93999e+12 -4.05991e+13 13149046
-2.68552e+13 -7.55362e+12 -6.19484e+13 8087117
-591405 327385 3.09587e+06 9477038
0.0160342 -0.0497192 5.07596 5202298
-6.36142e+12 -2.43232e+12 -2.02314e+13 7433847
-8.25943e+12 -3.0971e+12 -2.57058e+13 13215362
-8.30151e+12 -2.88657e+12 -2.36508e+13 5588289
-2.71595e+13 -7.66523e+12 -6.18068e+13 10455402
-90993.3 55507.2 514213 9937844
-0.0202176 -0.0393061 5.17376 10528953
0.00649741 -0.0504006 5.06914 11254734
-9.00499e+12 -2.89167e+12 -2.31713e+13 8950937
-1.16141e+13 -3.62456e+12 -2.9213e+13 5982532
-579057 335451 3.0611e+06 6644853
-1.17234e+13 -3.66569e+12 -2.90563e+13 8353645
-674122 389288 3.49415e+06 9674676
-0.0124781 -0.0417635 5.14333 7171708
-0.000134289 -0.0466452 5.09919 11450564
-2.02739e+12 -8.51224e+11 -6.74303e+12 7434858
-1.71977e+13 -5.3824e+12 -4.16061e+13 6246213
-2.15504e+13 -6.68297e+12 -5.07971e+13 12032374
-0.00528463 -0.0369852 5.17715 9675447
0.0278653 -0.0482973 5.07198 3749696
-1.29501e+13 -5.08194e+12 -3.89028e+13 7763825
-1.03565e+13 -3.92732e+12 -2.97828e+13 8095367
-0.0169543 -0.0407521 5.14577 9740212
-0.00874287 -0.0434426 5.12047 12238017
-0.000289529 -0.0455378 5.1004 8623265
-9.21735e+12 -3.19502e+12 -2.37352e+13 6581105
-1.14633e+13 -3.92841e+12 -2.9147e+13 5591122
0.0135963 -0.0473736 5.07953 4938355
-6.86583e+12 -2.77912e+12 -2.06894e+13 8158586
-1.44581e+13 -4.76924e+12 -3.47475e+13 6641480
-0.0144084 -0.0394401 5.1477 8685979
-0.00328457 -0.0448875 5.10093 7437201
0.00472383 -0.0446476 5.09897 4543852
0.0196421 -0.0490197 5.06331 4741488
0.064932 -0.0390203 5.12893 6385790
-720412 463107 3.76999e+06 10729155
-348737 254261 2.04672e+06 8883352
-0.0071425 -0.0419701 5.12187 10267063
-2.86157e+13 -9.66003e+12 -6.64205e+13 8615008
0.0270425 -0.0476403 5.06388 3619659
-4.80401e+12 -2.30174e+12 -1.60649e+13 4798259
-6.84047e+12 -3.09651e+12 -2.15287e+13 5196355
-1.20362e+13 -4.45854e+12 -3.06286e+13 7499897
-2.27027e+13 -7.62013e+12 -5.1632e+13 5063220
-647457 455703 3.49057e+06 7436423
0.0286664 -0.0461135 5.07189 4211276
-6.93435e+12 -3.19891e+12 -2.2102e+13 5985617
0.00986443 -0.0504449 5.04346 10399426
-968210 655223 4.92082e+06 5858935
0.00232534 -0.0420269 5.10316 8885159
-1.20599e+13 -4.7404e+12 -3.13354e+13 7107706
0.0281792 -0.0450964 5.07336 5133670
-9.06591e+12 -4.14858e+12 -2.72806e+13 5326659
-0.00388085 -0.0413986 5.10506 11383483
-819624 606081 4.33052e+06 13029081
-11787.6 9619.87 68505.7 8489886
0.00905814 -0.0470966 5.06235 11385284
0.0133242 -0.0455576 5.07054 3551804
-9.78962e+12 -3.95526e+12 -2.49975e+13 5855839
-0.0109753 -0.037786 5.12748 6318203
-0.014495 -0.033481 5.15606 9541542
0.0100151 -0.0431936 5.08522 14016489
0.0748808 -0.0298407 5.16156 3354159
-0.00441793 -0.0402093 5.10645 7106942
0.0104142 -0.0489897 5.04448 13950183
0.0325345 -0.0433285 5.07714 6317166
-9.9086e+12 -4.24209e+12 -2.63762e+13 5259844
-1.53147e+13 -5.99107e+12 -3.70478e+13 10985610
-3.03058e+13 -1.16244e+13 -7.04376e+13 9670271
-2.64142e+13 -1.00177e+13 -6.02815e+13 10390384
-3.39395e+06 2.42394e+06 1.64484e+07 6191256
0.00084704 -0.0418216 5.08975 8030368
0.00206715 -0.041952 5.0897 11780306
0.0012453 -0.0395295 5.10679 13490151
-1.52263e+12 -7.97351e+11 -4.8434e+12 4996925
-0.00603117 -0.0386334 5.10824 7239046
0.0165188 -0.0456643 5.05921 13026759
-517575 396401 2.59031e+06 5331817
-453858 354464 2.31489e+06 2436678
-363756 290922 1.9101e+06 4151155
0.0146405 -0.0435847 5.07099 13753832
-1.61083e+06 1.2021e+06 7.81648e+06 10601947
-1.49513e+06 1.15795e+06 7.38913e+06 4149604
-0.0185886 -0.0293444 5.16244 4607836
0.00030115 -0.037338 5.10908 10596031
0.0110002 -0.0443842 5.06332 9674417
-0.00600618 -0.0371202 5.11028 9872303
0.00120433 -0.0336316 5.12948 10662336
0.00569295 -0.033768 5.12574 12175316
-5.49757e+06 4.52756e+06 2.81048e+07 6714251
-0.00108371 -0.0392534 5.09274 9018027
0.0151841 -0.0441489 5.06111 9937588
0.0176033 -0.0459815 5.05047 13488858
0.0255831 -0.0404857 5.08074 5788763
-0.0102645 -0.032215 5.13503 7897749
-0.0051893 -0.0358324 5.11175 8029846
0.0299957 -0.0415954 5.0719 5988718
-348617 310781 1.88607e+06 3028297
0.00664731 -0.042909 5.06589 9873338
-5011.83 5467.47 31921.5 8227485
6.1651e+11 -3.39965e+11 -2.08366e+12 8951442
-0.00921211 -0.0344845 5.11314 8555678
0.00342485 -0.0401493 5.07912 11517643
0.0040064 -0.0401567 5.079 7700120
-173541 152981 888643 3027011
-0.0159011 -0.0240878 5.1707 7436430
-0.000454811 -0.0371521 5.09496 6383740
0.00683219 -0.0420127 5.06657 7900836
0.00898028 -0.0420892 5.06584 10858690
0.0273718 -0.0411065 5.06666 5987686
0.00631448 -0.0397539 5.07857 11781332
0.0092208 -0.0435766 5.05608 11452367
0.0145849 -0.0421067 5.06284 13030111
-565339 511874 2.91001e+06 11324385
-62596.7 62597.5 354827 4739944
-0.0129101 -0.0289924 5.13931 8753827
0.00127538 -0.0391327 5.08036 11386572
-119623 114591 643488 5401481
