ply
format ascii 1.0
element vertex 511
property float x
property float y
property float z
property uchar red
property uchar green
property uchar blue
end_header
-0.0479849  0.0150713 -0.0171166 0 255 0
   0.192844 -0.00579596 -0.00877097 0 255 0
   0.50422 -0.0145413  -0.029594 0 255 0
  0.783094 -0.0345352 -0.0618685 0 255 0
   1.05623 -0.0385867 -0.0343824 0 255 0
-0.181779  -2.95353   7.05552 255 255 255
 0.232701 -0.804163   6.02543 255 255 255
0.369682 -3.03992  7.28452 255 255 255
 0.492886 -0.727021   6.00732 255 255 255
-1.4124 1.79245 6.32859 255 255 255
0.701519 -2.95998  7.52115 255 255 255
 0.861963 -0.762042   6.11106 255 255 255
0.779368 -2.92187  7.52522 255 255 255
 -1.05783 -0.674406   6.47137 255 255 255
0.195944 -2.54062  7.23622 255 255 255
-0.632054  -0.48552    6.1696 255 255 255
  2.12131 -0.685665   8.17755 255 255 255
0.230223 -2.43927   7.1221 255 255 255
0.286862 -2.41161  7.13442 255 255 255
-0.491685 -0.363917   6.10666 255 255 255
-0.943636  -2.77697   7.72669 255 255 255
0.907488 -2.08012    7.137 255 255 255
 1.16733 -1.97409  7.33461 255 255 255
  1.18461 -0.416027   6.36169 255 255 255
0.146226 -2.68147  7.33152 255 255 255
-1.28486 -1.80098  7.63067 255 255 255
  0.34832 -0.263963   5.84461 255 255 255
-0.0758718   -1.54688     6.4168 255 255 255
-0.0438333    -2.7306    7.53697 255 255 255
-0.201718  -1.42274   6.31545 255 255 255
-1.08449 -2.15174  7.61079 255 255 255
-4.39143  3.89271  12.7353 255 255 255
0.523282 -1.47024  6.40457 255 255 255
0.484513 -1.54023  6.44029 255 255 255
-1.21493  1.84556  6.13764 255 255 255
0.850724 -1.44021  6.55776 255 255 255
  0.336395 -0.0588733    5.61943 255 255 255
0.521888 -1.27939  6.22948 255 255 255
-0.390794 0.0351447   5.63345 255 255 255
-0.505779  -1.16198   6.16426 255 255 255
0.606366 0.055833  5.91396 255 255 255
-4.27662  4.01371  12.7537 255 255 255
-0.188311  -1.12714   6.15094 255 255 255
 1.51058 0.119842  6.51633 255 255 255
-0.254032  -1.03437   6.09678 255 255 255
-0.179162  0.197402   5.33205 255 255 255
0.0276109  -1.05187    6.1425 255 255 255
-0.107814  -1.02624   6.11428 255 255 255
-0.444676  0.310324   5.79802 255 255 255
0.327529 -1.02666  6.07145 255 255 255
-0.397377  0.326238   5.73908 255 255 255
0.632863 0.283366  5.88771 255 255 255
0.193776 -0.89784   5.9873 255 255 255
-0.404275 -0.865106   6.03168 255 255 255
-0.943418  0.415444   6.03951 255 255 255
  0.74821 -0.907982   6.08017 255 255 255
-0.936228 -0.813107   6.34402 255 255 255
-1.20751 0.559516  6.23733 255 255 255
 0.409737 -0.813384   5.96598 255 255 255
-0.630199 -0.990377   6.12703 255 255 255
0.562567 0.482297  5.81197 255 255 255
 0.459732 -0.794296   5.97609 255 255 255
 2.73053 0.741508  8.67489 255 255 255
-0.648598 -0.923195   6.10732 255 255 255
-0.648283 -0.744946   6.16239 255 255 255
  -1.249 0.768626  6.26917 255 255 255
 -0.90451 -0.724713   6.29847 255 255 255
 0.428264 -0.907783   5.99284 255 255 255
-0.727308  0.683216    5.7376 255 255 255
 0.944458 -0.797631   6.18949 255 255 255
  2.0259 -1.11072  8.44135 255 255 255
-1.64338 -1.03486  7.76741 255 255 255
 -1.00127 -0.681106   6.48245 255 255 255
-1.69145  1.00056  6.83742 255 255 255
-0.387935   0.82528    5.5238 255 255 255
 0.501746 -0.686819    6.0945 255 255 255
-0.385992 -0.801586    6.0453 255 255 255
 2.1377 -1.0173  8.3809 255 255 255
-0.258516  0.844662   5.43836 255 255 255
-0.352641  0.865417   5.47697 255 255 255
  1.42755 -0.941498   6.82194 255 255 255
-0.599676 -0.591235   6.21892 255 255 255
-0.819217   1.09976   5.73156 255 255 255
-0.998261 -0.742862   6.42782 255 255 255
6.03714 2.72332 16.3743 255 255 255
   1.1832 -0.678085     6.389 255 255 255
   1.1802 -0.754459   6.37416 255 255 255
 0.678206 -0.576218   6.14917 255 255 255
 0.752799 -0.576965   6.16445 255 255 255
-0.307775 -0.439911   5.95512 255 255 255
  1.24504 -0.612919   6.42971 255 255 255
  2.23015 -0.808295   8.27891 255 255 255
 0.865833 -0.513218   6.22389 255 255 255
-0.165129 -0.447726   5.69462 255 255 255
  1.95712 -0.757138   8.20191 255 255 255
  1.26876 -0.521588   6.40323 255 255 255
-0.771479 -0.364835   6.23092 255 255 255
-0.482523 -0.423736   6.14203 255 255 255
  1.17252 -0.472357   6.33479 255 255 255
8.07616 3.58396 18.7982 255 255 255
 0.320691 -0.449205   5.97663 255 255 255
8.20757 3.52201 18.3308 255 255 255
 1.41959 -0.50597   6.6314 255 255 255
-1.67775   1.5862  6.75025 255 255 255
  0.25559 -0.403265   5.74952 255 255 255
  1.89197 -0.573664   7.99254 255 255 255
  0.44591 -0.334842   6.05019 255 255 255
1.26088 1.36852 6.28361 255 255 255
 0.185863 -0.250309   5.51712 255 255 255
-0.0254393    1.27414    5.47668 255 255 255
 -0.31933 -0.139346   5.72517 255 255 255
  2.19957 -0.469274    8.1337 255 255 255
 -0.327417 -0.0887669    5.72342 255 255 255
 0.522249 -0.274473   5.97531 255 255 255
  1.04096 -0.304497   6.23178 255 255 255
-1.34756  1.59242  6.25165 255 255 255
  2.13103 -0.145671   7.83725 255 255 255
8.27761 3.97239 18.0233 255 255 255
  0.342995 -0.0166789    5.59784 255 255 255
   1.50763 -0.0215254    6.53594 255 255 255
 0.560543 -0.216289   6.03633 255 255 255
  2.10899 -0.040533   7.78482 255 255 255
1.85376   1.589 6.82742 255 255 255
-0.531737  0.170751   5.81683 255 255 255
  -1.17364 -0.0286757     6.2748 255 255 255
0.167806 0.153762  5.24984 255 255 255
0.802447 0.146007  6.00327 255 255 255
1.23472 1.52311 6.28794 255 255 255
-1.64815  1.79279  6.69324 255 255 255
0.12718 1.39404 5.41698 255 255 255
0.779909 0.191618  5.98704 255 255 255
 1.54065 0.166705  6.50708 255 255 255
0.158061 0.286649  5.32204 255 255 255
 2.46893 0.397832  8.28321 255 255 255
-0.936156  0.237537   6.07811 255 255 255
 2.19418 0.639078  7.77723 255 255 255
-0.554335   0.69057   5.67066 255 255 255
-0.540826  0.329339   5.79163 255 255 255
-1.82629  2.20271  5.55059 255 255 255
-0.658556   0.42033   5.83069 255 255 255
-1.14557 0.869431  6.11291 255 255 255
-0.514212  0.785795   5.63057 255 255 255
0.833694 0.343469   5.9894 255 255 255
-1.94224  1.11737  7.34383 255 255 255
-0.388958  0.793966   5.59102 255 255 255
-1.90841 0.639406  7.52338 255 255 255
 5.6721 2.26821 16.1033 255 255 255
0.110526 0.920862  5.46239 255 255 255
2.15757 1.15415 7.45324 255 255 255
 2.32062 0.618769  7.90682 255 255 255
-0.479783   0.58313   5.67176 255 255 255
0.841738   0.5537  5.96724 255 255 255
9.78801 3.00193 19.7914 255 255 255
-0.627194   1.04974   5.61354 255 255 255
 2.34668 0.703631  7.86362 255 255 255
-0.664642  0.696787   5.71069 255 255 255
-0.455731  0.680108   5.61887 255 255 255
-1.12356  1.29391  6.02244 255 255 255
-0.128484  0.684634   5.52125 255 255 255
0.714851 0.687875  5.86606 255 255 255
8.33153 3.41698 18.4232 255 255 255
-0.462031  0.979043   5.57328 255 255 255
-0.687022   1.28028   5.59902 255 255 255
0.324737  -2.9581  7.20325 255 255 255
-1.26321   1.9382  6.10629 255 255 255
  8.408  3.4738 19.8814 255 255 255
1.32915 1.35247 6.34356 255 255 255
-0.551584  -2.91755   7.32846 255 255 255
-0.443467   1.12719   5.51181 255 255 255
8.15283 3.77345 18.1291 255 255 255
0.426988 -2.95045   7.2806 255 255 255
-1.34424  1.36595  6.34265 255 255 255
-1.57259  1.64874  6.58341 255 255 255
-0.661367   -2.8176   7.28869 255 255 255
-4.50618  3.38149  13.1875 255 255 255
0.770367 -2.88216  7.57507 255 255 255
-0.619143    1.2647   5.56066 255 255 255
-1.68223  1.75915  6.75511 255 255 255
-0.53239 -2.47137   7.5492 255 255 255
-1.34875  1.63673  6.25022 255 255 255
-1.29881   2.0114  6.11761 255 255 255
-0.0959145   -1.26688    6.22028 255 255 255
-1.47938  1.68444  6.43472 255 255 255
4.75526 3.17555 13.0905 255 255 255
-0.142377  -1.19738   6.18883 255 255 255
5.03297 3.12716 12.9446 255 255 255
0.395595 -1.24371  6.24406 255 255 255
0.425871 -1.13051  6.09782 255 255 255
-1.18666  1.69389  6.15758 255 255 255
-0.642809   -1.0903   6.22207 255 255 255
-1.58315  1.81698  6.55921 255 255 255
-0.480207   -1.0799   6.12638 255 255 255
0.640131 -1.15084  6.19687 255 255 255
-0.615803   1.48951   5.46345 255 255 255
 1.30039 -1.32125  6.96079 255 255 255
-0.442619   1.45087   5.36565 255 255 255
-0.210502  -1.03865   6.09807 255 255 255
 0.290239 -0.981283   6.06786 255 255 255
-0.794888 -0.932739   6.19195 255 255 255
-1.28308  1.72412  6.13529 255 255 255
 -0.13807 -0.874108   6.00315 255 255 255
 1.92038 -1.37479  8.57794 255 255 255
-1.26148  1.81943  6.15216 255 255 255
 1.97978 -1.29746  8.51564 255 255 255
 -1.53427 -0.941287   7.52995 255 255 255
-0.166488 -0.810034   5.98898 255 255 255
 0.862629 -0.867725    6.1385 255 255 255
-1.04861  1.94222  6.03958 255 255 255
-0.000867997     -2.44154      7.12589 255 255 255
-0.337863  -2.28729   7.06078 255 255 255
0.259078 -1.59418  6.43347 255 255 255
0.536439  -1.3836  6.36955 255 255 255
 1.10943 -0.38819  6.30454 255 255 255
 0.765405 -0.214006   6.09938 255 255 255
-0.667211  -1.18677   6.29016 255 255 255
0.083553 -1.21326  6.20225 255 255 255
-0.89492 -2.56967  7.92625 255 255 255
 0.809421 -0.108441   6.05808 255 255 255
0.248831 -1.12712  6.13098 255 255 255
0.360198 -1.04545  6.05413 255 255 255
0.384438 -1.33695  6.28227 255 255 255
-0.545417 -0.939722    6.0974 255 255 255
  2.30832 -0.193989   8.13937 255 255 255
-0.213135 -0.858396   6.02081 255 255 255
-1.52655 -1.29979  7.69658 255 255 255
 0.355548 0.0274781    5.5927 255 255 255
  1.02795 -0.902425   6.30915 255 255 255
-0.177761  0.133688   5.33717 255 255 255
0.512167 0.102114  5.78089 255 255 255
-0.0956468    0.19625    5.25428 255 255 255
-0.301162 -0.944014   6.03008 255 255 255
0.281256 0.306634  5.62559 255 255 255
 -1.14582 -0.627951    6.6826 255 255 255
-0.677602 -0.483614   6.20526 255 255 255
 -1.05061 -0.435964   6.48478 255 255 255
-0.506099 -0.834296   6.05135 255 255 255
-0.479732 -0.429447   6.15051 255 255 255
-0.827047  -0.79284   6.22796 255 255 255
-0.813301 -0.390258   6.27665 255 255 255
 2.69347 0.919054  8.41702 255 255 255
  1.26519 -0.511271   6.43244 255 255 255
-0.189294  0.914499   5.44912 255 255 255
  1.36684 -0.423077   6.54977 255 255 255
-0.543851    1.0747   5.58714 255 255 255
  2.31479 -0.478438   8.22138 255 255 255
  -0.548179 -0.00543543     5.80172 255 255 255
 0.668736 -0.135063   6.01834 255 255 255
-0.298656 0.0111917    5.5973 255 255 255
-0.405105  0.134527   5.65099 255 255 255
8.47035 3.26573 18.1704 255 255 255
  1.77531 0.0371746   7.08016 255 255 255
 1.00206 0.358047  6.06492 255 255 255
-1.03735 0.493205  6.09917 255 255 255
 2.52028 0.538186  8.41413 255 255 255
0.557176 0.373818  5.87303 255 255 255
-0.610964  0.603345   5.72136 255 255 255
 1.81497 0.646345  6.91418 255 255 255
-0.299595  0.585344   5.56101 255 255 255
-1.38309 0.815022  6.45736 255 255 255
-0.50023  1.47046  5.50813 255 255 255
-1.51743  1.03016   6.6041 255 255 255
-4.52653  3.69702  13.1933 255 255 255
2.48596 1.16887  8.0343 255 255 255
-0.21166  1.41921  5.34052 255 255 255
0.0590381  0.648096   5.52364 255 255 255
0.629315 0.648339  5.78839 255 255 255
-1.22691  1.34015  6.18285 255 255 255
-0.412488  0.767544   5.59645 255 255 255
-0.660535   1.20356   5.61747 255 255 255
-0.652578  0.856702   5.68452 255 255 255
-0.205389  0.805834     5.499 255 255 255
-0.201652   -2.3089   7.02351 255 255 255
-1.16066  1.44979  6.11507 255 255 255
-1.32744  1.56977    6.269 255 255 255
0.609274 -2.18128  6.99103 255 255 255
0.124596 -1.54248  6.37321 255 255 255
5.69831 2.56581  16.123 255 255 255
-1.28763 -1.66302  7.48163 255 255 255
6.17346 2.68146 16.5136 255 255 255
0.498968 -1.24223  6.24979 255 255 255
-0.975559   1.43552   5.82297 255 255 255
-1.08841  1.66932  6.03829 255 255 255
-0.735875  -2.17856    7.2511 255 255 255
-0.23111 -1.16245  6.21277 255 255 255
-1.25303  -2.0015   7.5709 255 255 255
-0.327257 -0.952883   6.05018 255 255 255
-0.852459 -0.428241   6.23391 255 255 255
-1.76146 0.570053  7.18286 255 255 255
0.516227  0.18869  5.78876 255 255 255
-1.37665 0.510249  6.47711 255 255 255
-0.728731  0.655232   5.85837 255 255 255
-0.554725  0.940814   5.61783 255 255 255
2.03803 1.20704 7.27333 255 255 255
 0.423381 -0.983421   6.06068 255 255 255
  1.18847 -0.211567   6.47983 255 255 255
-0.634459 -0.143119   5.77237 255 255 255
-0.263876  0.308504   5.63442 255 255 255
-0.00603221   -0.687231     5.90708 255 255 255
-0.562873 -0.644685   6.17229 255 255 255
-0.0455713  -0.178445    5.41566 255 255 255
0.0524549  0.518625   5.77254 255 255 255
  2.17737 -0.191289   7.85741 255 255 255
0.112329 -3.00802  7.25756 255 255 255
  0.430369 -0.0189864    5.78512 255 255 255
-0.284367  -2.45475   7.25099 255 255 255
0.411283 -2.47304  7.31477 255 255 255
0.339863 -2.52276  7.33873 255 255 255
-0.444342  0.205567   5.77719 255 255 255
0.885744 0.269157  6.04192 255 255 255
0.710427 -1.55864   6.5727 255 255 255
0.356076 -1.50846  6.40321 255 255 255
 1.10676 -2.05939  7.24733 255 255 255
-0.10341 -1.30592  6.20252 255 255 255
0.310356 -1.26095  6.21988 255 255 255
-1.57965 0.672729  6.84276 255 255 255
 1.51811 -1.69431  7.73739 255 255 255
-0.479783   0.58313   5.67176 255 255 255
0.339233 -1.14372  6.18861 255 255 255
-0.148768   -1.3338   6.26804 255 255 255
0.658688  -1.0646  6.13151 255 255 255
0.284467 -1.04016  6.08392 255 255 255
-0.458303  -1.30725    6.3196 255 255 255
 1.74332 -1.65471  8.29325 255 255 255
 1.50415 -1.17301  7.09828 255 255 255
2.83083 1.01904 8.63569 255 255 255
-0.123298  0.839235   5.44528 255 255 255
-1.41887 -0.88307  7.27842 255 255 255
  1.07782 -0.711758   6.25344 255 255 255
  1.12742 -0.713434   6.31565 255 255 255
  1.23397 -0.700036   6.45186 255 255 255
-0.903182  -0.86201   6.23766 255 255 255
  2.00835 -0.637588   8.05518 255 255 255
-0.976967 -0.587833   6.45981 255 255 255
8.15283 3.77345 18.1291 255 255 255
  1.98185 -0.529854    7.9767 255 255 255
-0.710468 -0.359776    6.2312 255 255 255
     1.06 -0.356045   6.34006 255 255 255
  2.22118 -0.381296    7.9876 255 255 255
 1.2909 1.46224  6.2714 255 255 255
 0.623537 -0.212459   6.02251 255 255 255
1.85234 1.58822 6.81483 255 255 255
  0.959591 -0.0785128    6.11843 255 255 255
  2.41399 0.0110813   8.48934 255 255 255
 -1.56105 -0.252561   7.29436 255 255 255
  2.03092 -0.190333   7.66519 255 255 255
0.0581441  0.199199   5.20554 255 255 255
-0.222493  0.291583   5.60599 255 255 255
2.72774 0.81468 8.61547 255 255 255
-0.224786   1.49782   5.30579 255 255 255
 1.8335 1.17496 6.87888 255 255 255
8.21364  3.6534  18.246 255 255 255
7.53221 3.66375 17.7749 255 255 255
1.30579 1.37726 6.27362 255 255 255
0.724829 0.815204  5.83601 255 255 255
8.52419 4.15435 17.9501 255 255 255
5.47153 2.25401 16.1044 255 255 255
-0.317135  -2.48149   7.35172 255 255 255
-0.969113  -2.36797   7.74538 255 255 255
-2.06666  2.29689  7.24036 255 255 255
0.172811 -1.46525  6.33216 255 255 255
-4.10169   2.5402  9.35844 255 255 255
2.63881 1.51018 6.06296 255 255 255
 1.53256 -1.48567  7.58157 255 255 255
-1.99052  2.03584  7.17187 255 255 255
-1.37869  1.27866  6.41251 255 255 255
-1.41151  1.79117  6.32459 255 255 255
0.049661  1.52658  5.34233 255 255 255
 0.241512 -0.870313   6.02023 255 255 255
 0.863451 -0.868731   6.14404 255 255 255
2.23843 1.78983 7.37317 255 255 255
-0.628078 -0.357192   6.16058 255 255 255
  2.10465 -0.363235   7.87465 255 255 255
-5.28387  4.37563  12.3862 255 255 255
0.498147 -1.23787  6.23929 255 255 255
 2.12918 -1.04631  8.39965 255 255 255
0.333826 -0.39602  5.93814 255 255 255
0.591491 -1.02597  6.05707 255 255 255
 0.880799 -0.998792   6.31021 255 255 255
-0.211457 -0.659649    5.9296 255 255 255
-0.588785  -0.43783   6.17467 255 255 255
   1.3792 -0.575332   6.61114 255 255 255
 0.547703 -0.306039   6.06905 255 255 255
-0.297778  0.496175   5.59964 255 255 255
2.16359 1.48958  7.3587 255 255 255
1.99569 1.65135 7.04132 255 255 255
-0.226458   1.57416   5.33676 255 255 255
-0.27942 -1.35769  6.36401 255 255 255
-0.831503 -0.793561    6.2506 255 255 255
1.05709 0.19186 6.15918 255 255 255
  1.31895 -0.809795   6.75516 255 255 255
 2.03026 0.873995  6.86332 255 255 255
0.470606 0.597337  5.77961 255 255 255
0.241793 -2.89633  7.54201 255 255 255
-0.00615203   -0.694843     5.92941 255 255 255
-0.250778   1.09454   5.56492 255 255 255
-0.00467302    -1.67763     7.05724 255 255 255
   1.5235 -0.236438   6.65358 255 255 255
  1.49633 -0.175319    6.5711 255 255 255
   2.16711 0.00951064    7.84317 255 255 255
 1.41563 -1.70253  7.54705 255 255 255
0.356076 -1.50846  6.40321 255 255 255
 1.51811 -1.69431  7.73739 255 255 255
 1.45147 -1.52425  7.42373 255 255 255
0.633407 -1.25757  6.33242 255 255 255
-0.250319  -1.12299   6.15198 255 255 255
  1.1447 -1.02817  6.49332 255 255 255
   -1.256 -0.928141   6.98014 255 255 255
0.408376 0.881468  5.72526 255 255 255
2.04868 1.11155 7.23847 255 255 255
1.92463 1.12893 7.00752 255 255 255
   1.5027 -0.909228   6.93719 255 255 255
-0.750366 -0.652339   6.25732 255 255 255
  1.17252 -0.472357   6.33479 255 255 255
  1.50367 0.0230135   6.52495 255 255 255
-1.74785  1.71248  6.83881 255 255 255
0.802447 0.146007  6.00327 255 255 255
0.192111 0.181631  5.25193 255 255 255
-0.40972 0.393388  5.77352 255 255 255
0.565991 0.562969  5.77434 255 255 255
-1.9974 1.99128 7.24503 255 255 255
 1.76811 0.654562  6.82665 255 255 255
5.90912 2.33016 16.4691 255 255 255
 2.57917 0.670757  8.38337 255 255 255
 2.34668 0.703631  7.86362 255 255 255
9.11715 2.93055 18.7889 255 255 255
 1.8354 1.10124 6.84904 255 255 255
2.13796  1.2128 7.35652 255 255 255
-1.95406  1.40657  7.24347 255 255 255
 1.2943 1.42507 6.26591 255 255 255
1.92729 1.65111 6.91563 255 255 255
-1.34471  1.36846  6.33681 255 255 255
5.03328 3.22036  12.907 255 255 255
0.205539 -1.26399  6.22225 255 255 255
0.0908895  -0.97518   6.10231 255 255 255
 0.899934 -0.968672   6.24532 255 255 255
  1.49649 -0.800828   6.96122 255 255 255
   1.4918 -0.649662   6.86768 255 255 255
-0.798029 -0.535274   6.35855 255 255 255
-0.325281 -0.495496   5.95652 255 255 255
  1.97548 -0.528651   7.94144 255 255 255
  1.34989 -0.298108   6.37786 255 255 255
1.41792 -1.3704 7.19947 255 255 255
0.202343 -2.95958  7.33442 255 255 255
 1.26933 -1.71928  7.25461 255 255 255
-0.436054  0.779035   5.68665 255 255 255
0.463377 0.346206  5.82617 255 255 255
 1.9939 1.64547 7.02859 255 255 255
-0.450323   1.55556    5.3941 255 255 255
1.07462 -1.9072 7.35082 255 255 255
 0.218517 -0.370751   5.68106 255 255 255
  1.77795 0.0371106   7.12493 255 255 255
0.250202 0.105737  5.33846 255 255 255
2.08742 1.43141 7.26292 255 255 255
 -1.34952 -0.637545   7.08805 255 255 255
 0.482877 -0.186204     5.894 255 255 255
 1.23009 0.210001  6.27549 255 255 255
0.268901  -2.8865  7.42934 255 255 255
-0.057332 -0.171764   5.48084 255 255 255
  2.8178 0.438691  5.46069 255 255 255
  1.88164 -0.139229   7.40593 255 255 255
0.0398285  -2.61936   7.29375 255 255 255
-0.207287  -2.44015   7.16709 255 255 255
 0.481677 0.0458721   5.79332 255 255 255
  1.34385 -0.910956   6.72188 255 255 255
0.370124 -1.08283  6.10915 255 255 255
8.67006   3.177 18.1652 255 255 255
 0.138626 -0.575675   5.65751 255 255 255
-1.60669  1.33228  6.69902 255 255 255
 8.2669 3.39255 18.2808 255 255 255
-1.3648 1.27427 6.37583 255 255 255
 0.905619 -0.553117   6.19306 255 255 255
  1.25977 -0.561302   6.46161 255 255 255
 0.310171 -0.373706   5.87677 255 255 255
  2.15474 -0.324041    7.8802 255 255 255
  1.17122 -0.157467   6.20712 255 255 255
   1.50763 -0.0215254    6.53594 255 255 255
 0.378635 0.0643442   5.51108 255 255 255
0.126861 0.171554  5.21327 255 255 255
0.809235 0.713009  5.97583 255 255 255
-0.273051  0.688813   5.53538 255 255 255
9.47719 2.90798  20.087 255 255 255
0.691826 0.361225   5.9038 255 255 255
-1.7148 1.11876 6.96549 255 255 255
0.124499 -2.57948  7.27674 255 255 255
-0.538683   1.06321   5.53926 255 255 255
-0.176217  -1.59709   6.42997 255 255 255
3.90694 2.50937 10.0422 255 255 255
-0.0405196   -1.23593    6.20723 255 255 255
 1.84401 -1.58199  8.48093 255 255 255
-0.208501  -1.03758   6.08788 255 255 255
 1.51209 -1.17114  7.13925 255 255 255
1.27403 1.57915 6.25789 255 255 255
0.606181  1.95917  6.59491 255 255 255
 0.78175 -2.11104  7.03834 255 255 255
  1.5111 -1.50317  7.46641 255 255 255
0.484793 -1.54788  6.46868 255 255 255
0.255402 -1.17516  6.17045 255 255 255
1.90729  0.2535 7.37508 255 255 255
 0.426227 -0.278359   6.03832 255 255 255
  1.76124 -0.274299   7.21534 255 255 255
0.514073 0.109241  5.78655 255 255 255
 2.01085 0.591357  7.41074 255 255 255
-0.541462    1.0681   5.55941 255 255 255
 -1.38149 -0.639133   7.19719 255 255 255
  1.98352 -0.673758   8.11592 255 255 255
  1.54968 -0.318851   7.00331 255 255 255
2.03686 1.20711 7.26469 255 255 255
1.45676 1.51075 6.28654 255 255 255
0.103634   1.4695  5.35755 255 255 255
 1.23198 0.198139  6.30429 255 255 255
0.443408 -2.02857  6.64537 255 255 255
