ply
format ascii 1.0
element vertex 483
property float x
property float y
property float z
property uchar red
property uchar green
property uchar blue
end_header
-0.178169  -2.90595   7.08687 31 28 39
 0.228359 -0.797763   6.02216 88 70 68
0.360173 -2.98962  7.31942  44  79 119
   0.4818 -0.723249   6.00854 108  81  64
0.682794 -2.92434  7.58348  41  84 139
0.841848 -0.75814  6.12133 69 54 47
0.758106 -2.89001  7.59571  44  84 143
 -1.03449 -0.678948   6.49413 73 61 49
0.189419 -2.50204  7.26596 35 29 33
-0.616622 -0.489881   6.17431 65 65 73
  2.07998 -0.694076   8.27535 129 118  90
0.223617 -2.39869  7.14519 209 190 157
0.278307 -2.37569  7.16578 183 167 142
-0.478684 -0.370359    6.1076 230 222 203
-0.923541   -2.7332   7.75877 56 51 45
0.885128 -2.05514  7.17964 201 183 171
 1.13888 -1.94847  7.36384 195 188 180
  1.15736 -0.420448   6.37889 74 75 69
0.140465 -2.64432  7.37679 183 159 131
-1.25921 -1.78237  7.66745 218 203 184
0.340881 -0.26992  5.83531 154 138 123
-0.0479724   -2.69097    7.58113 59 70 28
-0.196024  -1.40268   6.31746 193 179 166
-1.05784 -2.11454  7.61202 168 150 128
0.511196  -1.4514   6.4195 148 126 112
0.473447 -1.51933  6.45438 215 209 195
0.830531  -1.4238  6.58082 214 204 192
  0.329759 -0.0696356     5.6087 102  88  77
0.510664 -1.26235  6.23168 180 162 148
-0.379403 0.0212186    5.6261 195 183 169
-0.49142 -1.14784  6.16448 230 229 224
 0.591596 0.0416726   5.90665 225 217 196
-0.18259 -1.11391  6.15223 171 167 156
 1.47546 0.104076   6.5387 188 186 165
-0.246548  -1.02295   6.09622 184 177 169
-0.171203  0.180381   5.31406 93 77 64
0.0276581  -1.04043   6.14168 223 219 210
-0.104239  -1.01486   6.11418 217 213 204
-0.432231  0.287582   5.79165 229 223 207
0.320442 -1.01514  6.07385 232 224 213
-0.386534  0.305255   5.73572 72 61 65
0.617473 0.264176  5.87891 105  89  74
 0.191602 -0.899413   6.05162 172 157 150
-0.392798 -0.858668   6.03306 164 157 147
-0.922413   0.38991   6.05147 162 144 140
  0.73322 -0.903176   6.10752 188 172 159
-0.910763 -0.807627   6.33435 101  80  63
-1.18281 0.529887  6.25742 202 194 183
 0.400811 -0.806601   5.96388 177 164 155
-0.612869 -0.981115   6.12861 226 215 209
0.548903 0.458232  5.80468 205 199 185
 0.449301 -0.788173   5.97519 76 54 43
 2.67753 0.709624  8.78058 48 51 58
-0.630468 -0.914761   6.10574 98 88 79
-0.631459 -0.742402   6.16624 63 49 36
 -1.2244 0.734051  6.29216 196 183 166
-0.882594 -0.724377   6.30906 136 122 111
0.418897  -0.8988  5.99284 209 199 189
-0.709584  0.652095    5.7385 210 197 189
 0.922429 -0.792649   6.20083 197 186 180
  1.9856 -1.11687  8.55072 186 179 151
-1.61578 -1.03733  7.82375 205 198 188
-0.978534 -0.682201   6.49388 185 171 158
-1.66112 0.960861  6.87707 105  80  49
-0.376101  0.790817   5.51052 226 216 204
 0.489275 -0.684073   6.09794 56 37 22
-0.374049 -0.796443   6.04103 98 84 75
  2.0932 -1.02319  8.47906 193 189 162
-0.250814  0.812006   5.43154 193 177 161
-0.343021  0.832262    5.4776 107  91  78
  1.39539 -0.937974   6.86059 198 187 169
-0.584849 -0.592897   6.22061 106  97  92
-0.799347   1.05903   5.73176 151 130 113
-0.972593 -0.740745   6.42403 66 52 43
 6.0622 2.71101 17.0807 118 169 212
  1.15563 -0.677452   6.40854 60 44 44
  1.15402 -0.753504   6.40088 199 195 183
0.661956 -0.57646  6.15378 95 89 77
 0.734921 -0.577315   6.16993 101  93  82
-0.299454 -0.443654   5.95462 217 210 194
  1.21627 -0.613451   6.45384 74 66 55
  2.18791 -0.818178    8.3878 185 178 152
0.845004  -0.5149  6.23189 51 45 33
-0.158895 -0.450121   5.68551 177 163 152
  1.91655 -0.765958   8.29521 73 71 58
-0.753308 -0.372564   6.23774 74 68 80
-0.472011 -0.428842   6.14688 85 77 74
   1.1448 -0.475729   6.35139 196 183 167
8.28398  3.6543 20.0293 86 87 92
 0.313433 -0.452298   5.97359 191 178 170
8.40784 3.58181 19.4856 87 93 89
  1.38775 -0.509018   6.65822 164 152 136
-1.65023  1.53635  6.79206 180 165 144
 0.251007 -0.405439    5.7412 88 79 74
  1.85083 -0.584029   8.07521 44 46 41
 0.435156 -0.340096   6.05004 58 57 65
1.22834 1.32304 6.28576 65 55 56
0.184044 -0.25547  5.49884 134 114 107
-0.0243389     1.2307    5.46658 233 225 214
-0.309614 -0.149924   5.71547 234 227 211
   2.1566 -0.481597    8.2343 189 183 157
 -0.318811 -0.0994687    5.72037 123 103  92
 0.507687 -0.280331   5.96617 68 68 76
 1.01658 -0.31121  6.24415 197 183 172
  2.08649 -0.162665   7.91581 198 183 152
8.48784  4.0519 19.1718 78 76 81
  0.334042 -0.0284777    5.54472 186 177 160
   1.47303 -0.0350124    6.56148 204 197 181
 0.547005 -0.224488   6.03481 236 229 219
  2.06427 -0.058394   7.85849 226 209 181
1.80782 1.54014 6.84758 145 138 120
-0.517861  0.152254   5.81193 131 110  91
  -1.14834 -0.0457008    6.29236 155 148 129
 0.16623 0.137596  5.22878 106  93  87
0.782854 0.129821  6.00417 152 142 133
  1.202 1.47284 6.28953 32 40 77
-1.62555  1.73959  6.74687 75 61 58
0.125331  1.34693  5.40077 77 72 69
0.760112 0.173367  5.97988 159 149 147
0.156369 0.267149  5.30592 138 115  84
 2.42229 0.370994  8.38447 169 167 154
-0.915296  0.215396   6.08971 138 124 111
2.15025 0.61116 7.86063 44 46 58
-0.540287  0.659025   5.66645 182 166 151
-0.527355  0.307103    5.7903 180 161 147
-1.76282  2.11177  5.48029 190 173 147
-0.642387   0.39531   5.83038 208 200 189
-1.12115 0.833568  6.12607 161 147 136
-0.500174  0.751629   5.61897 182 163 149
0.812872  0.32462  5.98973 98 93 87
-1.9144  1.0765 7.40526 199 195 183
-0.37792 0.760589  5.58226 44 28 38
-1.88198 0.605858  7.58873 179 174 155
5.68122 2.24378  16.756 76 84 86
0.109316 0.884432  5.45005 125  98  69
2.10889  1.1169 7.50582 164 152 128
 2.27223 0.590474  7.98168 172 173 157
-0.466811  0.555143   5.66724 220 211 194
0.820476 0.527857  5.96427 130 121 114
 10.279 3.11658 21.5636  70  86 102
-0.612124   1.01024   5.61197 154 141 122
 2.30175 0.674078   7.9557 53 56 65
-0.648761  0.665543   5.71049 157 140 122
-0.443559  0.649688   5.61341 210 194 178
-1.09774  1.24679   6.0238 151 134 118
-0.123824  0.654336   5.50512 115  95  71
 0.69618 0.658511  5.85314 122 109 100
8.53706 3.47666 19.5922 158 150 137
-0.450334   0.94151     5.572 125 100  78
-0.66901   1.2334  5.58789 158 139 124
0.315278  -2.9115  7.23748 33 34 36
-0.539238  -2.86976   7.35812 33 31 36
-0.438001   1.09994   5.57496 192 173 158
8.33991 3.83583 19.2411 41 48 54
0.414767 -2.90407  7.31499 33 35 32
-1.54579  1.59771  6.61952 63 41 30
-0.646015  -2.77287   7.31734 38 38 40
-4.66167  3.42624  13.9322 51 42 45
0.751024 -2.84782  7.63955 40 39 44
-0.604441   1.21991    5.5586 222 205 197
-1.65758  1.70678   6.8049 196 167 133
-0.521602  -2.43602   7.58311 44 39 45
-0.0922567    -1.2501    6.22061 167 156 152
-1.45639  1.63305  6.47713 186 174 152
4.71418 3.13595 13.4553 56 69 75
-0.137512  -1.18286   6.19103 183 173 164
 5.0005 3.09393 13.3269 57 61 60
0.386352 -1.22789  6.24999 229 222 214
0.415941 -1.11713  6.10268 236 226 216
-1.16318  1.64061   6.1757 203 178 148
-0.626331  -1.07907   6.22404 131 119 105
-1.56043  1.76383   6.6091 119  97  84
-0.466216  -1.06742   6.12507 219 209 200
0.624735 -1.13731  6.20303 208 200 187
-0.601076   1.44083   5.46744 200 184 168
1.27072 -1.3119 7.00379 143 122 105
-0.430781   1.40154   5.35769 140 111  97
-0.203921  -1.02735   6.09826 136 122 111
 0.284258 -0.971373   6.06702 218 214 203
-0.773815  -0.92536   6.19514 221 212 195
-1.26654  1.68091   6.1929 187 167 134
-0.133028 -0.866138   5.99992 237 233 221
 1.88087 -1.37647  8.68478 42 43 45
 1.94087 -1.30172  8.63076 214 188 155
 -1.50361 -0.941943   7.56021 155 139 124
 -0.16068 -0.803152   5.98506 231 225 211
 0.842708 -0.861221   6.14791 65 58 48
-1.02385    1.877  6.03209 207 190 170
-0.00213355    -2.40637     7.16496 40 35 39
-0.330488  -2.25007    7.0783 208 205 186
0.252887 -1.57011  6.43959 216 211 207
0.524117 -1.36656  6.38306 221 214 206
  1.08336 -0.393372   6.32005 66 62 61
 0.747291 -0.222983   6.10549 216 206 194
-0.64888 -1.17332  6.29434 227 219 208
0.0819073  -1.19813   6.20551 233 226 220
-0.87714 -2.53003  7.95405 42 49 57
0.788917 -0.11897  6.05764 128 113 106
0.243999  -1.1147  6.13122 230 221 214
0.352618 -1.03452  6.06654 237 233 222
0.375743  -1.3193  6.28836 222 215 207
-0.530927 -0.931537    6.1001 111 102  85
  2.26121 -0.213174   8.22372 41 42 47
-0.206706 -0.853098   6.02655 107  94  77
-1.49981 -1.29311  7.74603 190 179 173
 0.347232 0.0146975   5.59639 197 183 172
  1.00363 -0.895859   6.32083 209 197 181
-0.169253  0.117868    5.3208 183 172 166
 0.500395 0.0862463   5.77568 81 65 42
-0.0901144   0.178601    5.23235 100  88  88
-0.292628 -0.935606    6.0316 193 186 178
0.274939 0.286753  5.61673 54 38 25
-1.12088 -0.63186  6.70054 194 181 172
-0.663174 -0.489145   6.22266 62 62 70
 -1.02823 -0.443932   6.50442 65 61 58
 -0.49177 -0.829595   6.05303 163 150 134
-0.468062 -0.434625   6.15249 94 84 83
-0.804897 -0.788775   6.22722 67 63 62
-0.792982 -0.397219   6.28525 74 73 79
 2.64587 0.886923  8.53608 66 65 73
  1.23617 -0.515061   6.45646 70 61 52
-0.182477   0.87821   5.43462 113  82  61
  1.33457 -0.428601   6.57724 52 39 31
-0.535058   1.04291   5.62254 120 101  86
 2.27044 -0.49119  8.32248 45 43 54
 -0.534871 -0.0199982    5.80628 200 193 183
 0.651792 -0.144308   6.01397 146 144 132
  -0.288704 -0.00248109     5.58486 201 189 173
-0.391633  0.117453   5.64112 172 159 140
8.71637 3.33193 19.3946 158 137 116
  1.73353 0.0197089   7.12708 44 44 46
0.976486 0.337435   6.0694 124 116 113
 -1.0169 0.466129  6.11921 201 189 175
  2.4746 0.510732  8.52904 46 50 62
0.543946 0.352248  5.85871 177 159 137
-0.594909  0.573946   5.71773 231 219 203
 1.77444 0.618505  6.95566 67 66 64
-0.291172  0.557431   5.55066 191 177 164
-0.486666   1.41865   5.49429 177 151 124
-1.49276 0.991548  6.64375 236 206 180
2.43389 1.13043 8.10136 56 51 55
-0.205529   1.37215   5.33572 217 206 188
0.0590238  0.618537   5.51154 95 76 69
0.616085 0.619187  5.80708 171 163 161
-1.20177  1.29467  6.19946 121 105  92
-0.40197 0.732767  5.57437 100  74  61
-0.644847   1.16104   5.61828 135 112 106
-0.63712 0.821952  5.68505 116 100  85
-0.197751   0.77233   5.48506 209 199 189
-0.197248  -2.26967   7.04017 227 216 196
-1.1399 1.40181 6.14117 87 72 65
-1.30173  1.51646  6.28751 86 62 52
0.593017 -2.14615  7.01032 213 201 189
0.121752 -1.52056  6.38148 134 124 123
5.70175 2.54647 16.7604 59 61 74
-1.26094 -1.64564   7.5163 235 229 217
 6.1604 2.64751  17.098 117 166 207
0.487772 -1.22749  6.26069 168 154 141
-0.953445   1.38688   5.82907 156 147 138
-1.06288  1.61173  6.03409 90 77 60
-0.722256  -2.15014   7.28147 217 208 193
-0.222615  -1.14649   6.20277 199 179 168
-1.23519 -1.99245  7.66416  50  96 155
-0.318024 -0.944209   6.05045 177 174 169
-0.827275 -0.438279   6.25277 79 71 68
-1.72767 0.536718  7.21288 179 163 148
0.505064 0.169263  5.78183 69 59 50
-1.35003  0.47812  6.50935 127 122 119
-0.70879  0.62324  5.85468 227 214 205
-0.539738    0.9032   5.61141 195 177 163
1.98601 1.16753 7.30452 111 102  87
 0.411884 -0.973284   6.06107 222 210 198
  1.16401 -0.222657   6.52039 206 200 178
-0.612375   -0.1544   5.75938 225 215 203
-0.251813  0.287139   5.61094 67 52 45
-0.00476077   -0.688867     5.92061 231 226 223
 -0.54954 -0.644635   6.17329 64 55 58
-0.0416348  -0.186523    5.39915 245 237 234
0.0486731  0.495735   5.78876 65 56 59
  2.13119 -0.207009   7.92909 52 51 49
0.109522 -2.96124  7.28956 34 32 37
  0.421003 -0.0304649    5.77845 89 79 69
-0.27903  -2.4143  7.27362 55 45 43
0.400373 -2.44402  7.37253 74 65 56
0.327148 -2.48517  7.37029 89 86 67
-0.43239 0.186608  5.77144 100  91  76
0.864489  0.24987  6.04239 111 104  98
 0.69402 -1.53411  6.57078 158 144 135
0.348115 -1.48794  6.41388 157 140 120
 1.07927 -2.04218  7.29887  54  97 152
-0.099425  -1.28825   6.20372 223 219 208
0.302704 -1.24745  6.23682 191 173 159
-1.55285 0.640329  6.88367 169 147 133
  1.4823 -1.67984   7.7768 171 171 147
-0.467126  0.555244   5.66847 220 211 194
0.333665 -1.12437   6.1615 120 105  82
-0.144479  -1.31632   6.27301 234 227 221
0.643339 -1.05274  6.13616 228 216 200
0.278512 -1.02857  6.08457 128 104 100
-0.446015  -1.29106   6.32562 229 229 221
 1.70181 -1.63767  8.32443 47 45 50
 1.47033 -1.16609   7.1424 46 38 36
 2.77925 0.984187  8.75629 61 69 82
-0.11865 0.805478  5.43195 224 211 203
 -1.39192 -0.884094   7.31369 176 158 136
 1.05301 -0.71026  6.27735 165 153 131
  1.10169 -0.711981   6.33289 74 56 44
  1.20553 -0.699288   6.47388 160 153 137
-0.880658 -0.857016   6.24203 199 187 175
   1.9664 -0.646747   8.13966 127 121 107
-0.953542 -0.590381   6.46554 88 71 61
8.34007 3.83377 19.2352 69 73 82
  1.94058 -0.540401   8.05668 132 125 106
-0.692845 -0.366677   6.23179 118 110  99
  1.03502 -0.362393   6.35552 62 66 69
  2.17434 -0.393025   8.06253 164 157 131
1.25748 1.41466 6.27169 166 157 152
 0.609873 -0.224708   6.01819 210 204 192
1.80529 1.53703  6.8296 145 138 120
  0.93641 -0.089295   6.11489 165 148 138
    2.34059 -0.00950198      8.4817 49 48 54
 -1.53233 -0.267865   7.33143 176 162 135
  1.98928 -0.204942   7.73947 215 196 156
0.0595697  0.182793   5.18867 107  94  77
-0.215466  0.271235   5.59647 51 40 36
 2.67381 0.780186  8.71618 66 70 79
-0.218515   1.44932   5.30019 144 122 108
1.79038 1.13716 6.91218 66 60 60
8.40565  3.7166 19.3782 150 146 145
7.63317 3.69047 18.6884  96 103 111
 1.2724 1.33273 6.27907 181 182 174
0.707196   0.7823  5.83543 139 130 131
 8.7715 4.25362 19.1529 85 81 80
5.45871 2.21745 16.6889 155 153 138
-0.312519  -2.44576   7.38707 92 83 76
-0.945976   -2.3282   7.75741  34  55 102
0.169446 -1.44511  6.33825 222 215 207
-4.13201  2.50811   9.6441  77 101 127
2.58129 1.46874 6.08599 69 71 84
 1.49774 -1.47508  7.63751 43 40 33
-1.97399  1.98862  7.26623 50 37 28
-1.3435 1.22927 6.41316 169 160 129
-1.38562  1.73671   6.3512 82 65 47
0.0495138    1.4752   5.33098 172 146 131
 0.236732 -0.862081   6.01471 198 189 172
0.843479 -0.86221  6.15318 69 56 50
2.19068  1.7412 7.43543 72 67 73
-0.614569 -0.363957   6.17105 102  88  77
 2.06213 -0.37623  7.95638 97 90 72
0.487071 -1.22274  6.24596 166 152 141
 2.08751 -1.05025  8.50255 149 150 134
 0.326335 -0.400314   5.93291 179 170 155
0.577925 -1.01421  6.05691 218 208 198
 0.859952 -0.989702   6.32077 190 184 168
-0.201299 -0.650224   5.88651 194 187 169
-0.574916 -0.442874   6.17548 125 121 109
  1.34705 -0.576284    6.6311 148 136 122
 0.534618 -0.312705   6.06926 76 76 86
-0.289209  0.470754   5.59177 71 61 59
2.11673 1.44777  7.4212 47 45 50
1.95245  1.6049  7.0951 69 70 75
-0.219644   1.52158   5.32662 160 138 117
-0.269981  -1.33336   6.33455 228 225 218
-0.810817 -0.790189   6.25435 67 63 62
 1.03492 0.179775  6.27984 100  87  81
  1.28884 -0.806763   6.77587 146 137 132
2.00065 0.85609 7.01132 67 62 59
0.460465   0.5684  5.74703 72 62 63
0.234423 -2.84292  7.56038  49  86 139
-0.00485226   -0.689725     5.92476 231 227 218
-0.243736   1.05371   5.55674 81 62 55
-0.0067239   -1.66221    7.10133 212 209 200
  1.48746 -0.245529   6.67659 44 43 41
  1.46131 -0.185348   6.59296 222 216 192
     2.1217 -0.00851908     7.91602 56 52 51
 1.38569 -1.69179  7.61566 42 42 40
0.346706 -1.48625  6.40563 162 148 122
  1.4856 -1.68691  7.81752 171 171 147
 1.41916 -1.51626  7.48837 60 57 42
0.618799 -1.24332  6.34638 226 220 208
-0.242742  -1.10939   6.15243 158 146 134
1.11808 -1.0207 6.51681 205 197 186
 -1.23226 -0.927969   7.01518 136 118 106
0.398279  0.84609   5.7156 42 32 31
1.99882  1.0727 7.26795 58 58 56
1.87745 1.08914 7.02939 161 145 129
  1.46846 -0.907272   6.97629 39 37 42
-0.731797 -0.652482   6.26158 105  78  67
  1.14487 -0.475597   6.35042 191 179 163
   1.46809 0.00818343    6.54477 205 206 188
-1.72689  1.66191  6.90599 91 64 55
0.782771 0.129776  6.00356 152 142 133
0.190151 0.166888  5.23414 85 68 60
-0.398608  0.369893   5.76639 80 73 80
0.552447 0.536452  5.76062 202 194 181
-1.97419  1.93672  7.32415 210 183 153
 1.72599 0.626325  6.84802 130 118 102
5.91506 2.29728 17.1161 104 155 208
 2.52575 0.638537  8.47027 56 54 59
  2.3014 0.675901  7.95344 53 56 65
9.50293 3.01922 20.3181 116 118 115
1.78982 1.06239 6.86546 132 123 124
2.08661 1.17148 7.39117 67 64 57
-1.93261  1.36066    7.325 59 43 46
1.25963 1.37553 6.25548 175 167 156
1.87658  1.5975 6.92443 77 70 62
-1.32202  1.32288  6.37255 176 169 161
5.00867 3.19332 13.3108 54 59 62
0.200935 -1.24843  6.22962 208 200 189
0.0885832 -0.965404   6.10424 174 165 156
 0.878887 -0.960516   6.25748 175 166 161
  1.46291 -0.802926   7.00627 63 52 50
  1.45798 -0.651976    6.9028 47 42 39
-0.779224 -0.539015   6.36601 37 28 29
-0.316703 -0.497507   5.95649 62 57 53
   1.9344 -0.539148   8.02137 122 114  93
  1.31838 -0.305384   6.39463 182 169 152
 1.38712 -1.36254  7.25412 161 149 127
0.195104 -2.92125  7.38308 40 36 37
 1.24065 -1.70653  7.31409 161 144 126
-0.425449  0.746421   5.68148 100  74  61
0.452608 0.324529  5.81142 52 48 47
1.94632 1.59595  7.0632 56 58 70
-0.438678   1.50403   5.38696 182 166 150
 1.04951 -1.88976  7.40825 195 182 165
 0.214948 -0.373606   5.66941 128 119 112
   1.7375 0.0201578    7.1651 44 44 46
 0.246322 0.0919862   5.31856 76 66 64
2.03938 1.38712  7.3089 40 35 39
 0.472266 -0.193517   5.88727 211 198 181
 1.19978 0.191497  6.27723 96 83 74
0.260902 -2.84218  7.46958  37  75 137
-0.0535248   -0.17928    5.46815 233 224 217
 2.76866 0.423272  5.50197  92 142 201
-0.20371 -2.40319  7.19413 83 68 63
 0.470541 0.0326766   5.78567 79 67 53
  1.31342 -0.908141   6.75746 105  91  80
0.362105 -1.07015   6.1108 239 231 220
8.95935 3.25368 19.4739 140 130 118
 0.136697 -0.573094   5.65259 194 177 159
8.50995 3.46579 19.5326 145 133 119
-1.34152  1.23022  6.41037 187 172 153
 0.884105 -0.553759   6.20132 102  75  56
  1.23064 -0.563427   6.48598 63 54 47
 0.303302 -0.376984   5.87354 199 185 172
  2.11081 -0.337783   7.95948 194 181 162
  1.14341 -0.166434   6.21706 217 213 201
   1.47267 -0.0349767    6.56126 245 241 230
 0.370582 0.0522961   5.50136 179 167 153
0.126011 0.157715  5.19886 160 144 128
 0.78883 0.683183  5.96708 126 119 113
-0.265008  0.659122   5.52607 94 69 64
9.89453 2.99727 21.7701 151 150 148
0.675029 0.340047  5.89437 89 75 64
-0.525016   1.02412   5.53542 118  94  82
-0.171883  -1.57502   6.44103 225 217 215
3.85077 2.46313 10.2342 61 70 85
-0.0391781     -1.221    6.21377 222 213 198
 1.80734 -1.58286  8.59231 42 42 40
-0.202693  -1.02659   6.09104 134 121 112
1.47913 -1.1674 7.19485 27 27 19
1.23963 1.52469 6.24496 219 209 199
0.587336  1.89426  6.59433 91 66 69
0.763053 -2.08335  7.07375 199 187 171
0.473067 -1.52802  6.48569 215 209 195
0.249886 -1.16096  6.17438 226 217 208
 1.86424 0.231927  7.42296 46 46 48
 0.415835 -0.284731    6.0397 207 200 181
  1.72192 -0.285617   7.26189 120 121 107
 0.502043 0.0949858   5.77923 80 63 47
-0.526558   1.02867   5.55472 120 101  86
 1.94259 -0.68362  8.20251 106  93  74
 1.51377 -0.32826  7.03704 29 32 37
1.98851 1.16659 7.30394 136 123 106
1.41823 1.45968  6.2794 78 72 72
0.101961  1.41965  5.34214 187 171 155
 1.20216 0.180303  6.31708 90 83 67
0.432433 -2.00014  6.67071 228 220 209
-0.0239051  0.0163234 -0.0608525 0 255 0
  0.207502 0.00232301  -0.050898 0 255 0
   0.507755 -0.00603547  -0.0747578 0 255 0
 0.776792 -0.019856 -0.108717 0 255 0
   1.04131  -0.015733 -0.0841468 0 255 0
