ply
format ascii 1.0
element vertex 234
property float x
property float y
property float z
property uchar red
property uchar green
property uchar blue
end_header
0 0 0 0 255 0
  0.999401 -0.0318622 -0.0134973 0 255 0
-0.185383  -2.90765    6.9442 255 255 255
 0.228037 -0.784451     5.836 255 255 255
0.681561 -2.93055  7.44389 255 255 255
 0.835308 -0.744582    5.9253 255 255 255
0.758384 -2.89309  7.44844 255 255 255
 -1.03069 -0.664715   6.31806 255 255 255
 0.18476 -2.50461  7.12842 255 255 255
0.274576 -2.37419  7.01777 255 255 255
-0.472321 -0.360029   5.92254 255 255 255
-0.94614 -2.75769  7.66648 255 255 255
0.883046 -2.04857   7.0196 255 255 255
 1.14805 -0.41134  6.18219 255 255 255
0.135293 -2.64635  7.23105 255 255 255
-1.28036 -1.78851  7.55839 255 255 255
 0.340564 -0.262148   5.64237 255 255 255
-0.0533172   -2.70154    7.45163 255 255 255
0.507658 -1.43563  6.23754 255 255 255
0.469952  -1.5044  6.27556 255 255 255
0.825764 -1.40925  6.39903 255 255 255
  0.329992 -0.0646154    5.41067 255 255 255
-0.488476  -1.13404   5.99139 255 255 255
 0.588623 0.0454323   5.70972 255 255 255
-0.180251  -1.09913   5.97241 255 255 255
 1.46427 0.107572  6.33806 255 255 255
-0.243219  -1.00867   5.91598 255 255 255
-0.162047  0.180879   5.12135 255 255 255
-0.101834  -1.00071   5.93255 255 255 255
-0.421803  0.290394   5.59781 255 255 255
0.319215  -1.0002  5.88621 255 255 255
-0.375596  0.305592   5.53727 255 255 255
  0.6141 0.264048  5.67956 255 255 255
-0.387822  -0.84443   5.84966 255 255 255
-0.908437   0.39343   5.85704 255 255 255
 -1.1695 0.534501  6.06825 255 255 255
0.398996 -0.79277  5.77467 255 255 255
-0.608468 -0.967446   5.95307 255 255 255
 0.54669 0.454672  5.59962 255 255 255
 0.447179 -0.774416   5.78487 255 255 255
 2.69872 0.727634  8.65187 255 255 255
-0.625942 -0.902136   5.93247 255 255 255
-0.625971 -0.729739   5.98742 255 255 255
-1.21014 0.737477  6.10058 255 255 255
-0.877677 -0.711919   6.13412 255 255 255
 0.416741 -0.884332   5.80393 255 255 255
-0.693458  0.649305   5.53971 255 255 255
 0.915276 -0.779811   6.00749 255 255 255
 1.99907 -1.11457  8.42206 255 255 255
-1.63876 -1.03351  7.70837 255 255 255
-0.363198  0.782831   5.31309 255 255 255
-0.370076 -0.782991   5.86228 255 255 255
 2.10962 -1.02114  8.35823 255 255 255
-0.238007  0.800199   5.22373 255 255 255
  1.38853 -0.926687   6.67432 255 255 255
6.52249 2.96522 17.9492 255 255 255
  1.14728 -0.665822   6.21519 255 255 255
 0.657808 -0.564916   5.96038 255 255 255
 0.729853 -0.565788   5.97673 255 255 255
  1.20739 -0.602861   6.25691 255 255 255
  2.19937 -0.812134    8.2456 255 255 255
 0.839118 -0.504511   6.03772 255 255 255
  1.92537 -0.759604   8.15096 255 255 255
-0.463978 -0.418058   5.95942 255 255 255
  1.13629 -0.465806   6.15518 255 255 255
9.07984 4.06257 21.4324 255 255 255
9.19841 3.97783 20.8247 255 255 255
  1.37835 -0.500433   6.46804 255 255 255
 0.251636 -0.395878   5.54825 255 255 255
  1.85709 -0.576013    7.9195 255 255 255
0.433876 -0.33118  5.85469 255 255 255
1.21834 1.30909 6.07275 255 255 255
0.185943 -0.24807  5.30961 255 255 255
-0.0143992    1.20955    5.25426 255 255 255
  2.16428 -0.473821   8.07698 255 255 255
 -0.308659 -0.0935199    5.52354 255 255 255
 0.507577 -0.272699   5.77745 255 255 255
 1.00827 -0.30273  6.04466 255 255 255
 2.09013 -0.15282  7.75021 255 255 255
 9.2378 4.46775 20.3816 255 255 255
   1.46201 -0.0294788    6.36141 255 255 255
 0.544391 -0.216774   5.83882 255 255 255
   2.06694 -0.0491005    7.69085 255 255 255
1.79656  1.5311 6.64059 255 255 255
  -1.13881 -0.0359842    6.11162 255 255 255
 0.77724 0.132224  5.80054 255 255 255
1.19292 1.45735 6.07451 255 255 255
-1.60912  1.74047   6.5471 255 255 255
0.131993  1.32238  5.19065 255 255 255
 2.43097 0.384466  8.22662 255 255 255
-0.902481  0.221616    5.8983 255 255 255
-0.525392  0.655329   5.46703 255 255 255
-0.514591  0.308843   5.59342 255 255 255
-0.628766  0.396741   5.63528 255 255 255
0.807183 0.322096  5.78363 255 255 255
-0.364903   0.75328   5.38125 255 255 255
6.10278 2.45833 17.5865 255 255 255
2.10427 1.11957 7.31349 255 255 255
 2.27538 0.600132  7.81231 255 255 255
-0.453712  0.552022   5.46743 255 255 255
0.814754 0.523912  5.75774 255 255 255
11.3524 3.50542 23.2663 255 255 255
-0.594198  0.999518   5.40742 255 255 255
-0.632431  0.661933   5.51047 255 255 255
-0.429709  0.644606   5.41206 255 255 255
-0.11429  0.64753  5.30717 255 255 255
0.692755 0.651952  5.65196 255 255 255
-0.434667  0.930583   5.36307 255 255 255
0.311078 -2.91664  7.10065 255 255 255
-0.552224  -2.88214   7.23605 255 255 255
9.10415 4.24684 20.5183 255 255 255
0.411354 -2.91182  7.18343 255 255 255
-0.660087   -2.7833   7.19602 255 255 255
0.749525 -2.85495  7.50042 255 255 255
-0.585268   1.20466   5.35152 255 255 255
-0.0915436    -1.2355    6.04498 255 255 255
-1.43704  1.62878  6.27219 255 255 255
4.91772 3.30532 13.7074 255 255 255
-0.136191  -1.16767   6.01191 255 255 255
5.20996 3.25621  13.561 255 255 255
0.384348  -1.2128  6.06719 255 255 255
0.414062  -1.1012  5.91536 255 255 255
-1.54211  1.76139  6.40582 255 255 255
-0.462957   -1.0538   5.95061 255 255 255
0.621072 -1.12216  6.01813 255 255 255
 1.26621 -1.30039  6.82649 255 255 255
-0.201094  -1.01274   5.91689 255 255 255
 0.283268 -0.956161   5.88145 255 255 255
 -0.76952 -0.912743   6.02296 255 255 255
-0.129951  -0.85232   5.81671 255 255 255
 1.89652 -1.37994  8.57395 255 255 255
 1.95493 -1.30211  8.50682 255 255 255
 -0.15719 -0.790259   5.80168 255 255 255
0.251069 -1.55693  6.26917 255 255 255
0.520488 -1.35078  6.20021 255 255 255
   1.0749 -0.384047   6.12166 255 255 255
-0.647207   -1.1603   6.12474 255 255 255
0.0824864  -1.18294   6.02463 255 255 255
  0.78415 -0.112866   5.86046 255 255 255
 0.24284 -1.09835   5.9495 255 255 255
0.373373 -1.30405  6.10858 255 255 255
-0.525599 -0.917732   5.92031 255 255 255
 -0.20264 -0.837404   5.83539 255 255 255
-1.52131 -1.29461  7.63173 255 255 255
  0.34849 0.0182178   5.38259 255 255 255
 0.996637 -0.882725   6.13389 255 255 255
-0.160925   0.12003   5.12771 255 255 255
-0.288046 -0.920549   5.84698 255 255 255
0.277385 0.285743  5.41269 255 255 255
 -1.12044 -0.621181    6.5388 255 255 255
-0.654364   -0.4767   6.02903 255 255 255
-1.02297 -0.43253  6.32842 255 255 255
-0.486711 -0.815032   5.87141 255 255 255
-0.801059 -0.777301    6.0595 255 255 255
-0.787485  -0.38669   6.10588 255 255 255
-0.171616  0.866762    5.2327 255 255 255
  1.32621 -0.419299   6.38056 255 255 255
  2.28134 -0.484027   8.17866 255 255 255
 0.648613 -0.138443   5.81959 255 255 255
-0.382527  0.121306   5.45003 255 255 255
9.51492 3.69479 20.6854 255 255 255
  1.72871 0.0273618   6.93507 255 255 255
0.969399 0.336393  5.86198 255 255 255
-1.00084 0.469121  5.92079 255 255 255
 0.54143 0.350925    5.664 255 255 255
-0.580908  0.572089   5.52088 255 255 255
 1.76318 0.619862  6.74859 255 255 255
-0.279056  0.553081   5.35115 255 255 255
2.43838 1.14208 7.93948 255 255 255
-0.387672  0.728126   5.38763 255 255 255
-0.626067   1.14706   5.41079 255 255 255
-0.620066  0.815207   5.48203 255 255 255
-0.187635   0.76335   5.28432 255 255 255
-1.11892  1.39398  5.93266 255 255 255
-1.28478  1.51374  6.09634 255 255 255
0.590782  -2.1439  6.86381 255 255 255
0.120879 -1.50559  6.20596 255 255 255
6.12647 2.78034 17.5929 255 255 255
-1.28005 -1.64941  7.39971 255 255 255
6.68603 2.92664 18.1448 255 255 255
-0.222398   -1.1343   6.03749 255 255 255
-1.24897 -1.98649  7.49984 255 255 255
-0.313543 -0.929409    5.8682 255 255 255
-0.824985 -0.423465   6.06253 255 255 255
0.502197 0.172943  5.57943 255 255 255
-1.34098 0.488882  6.32481 255 255 255
1.98374  1.1683 7.11826 255 255 255
 0.411832 -0.958157   5.87429 255 255 255
  1.15208 -0.213535   6.30077 255 255 255
-0.606213 -0.145826   5.58192 255 255 255
-0.245985  0.288097   5.42844 255 255 255
-0.542953 -0.632391   5.99534 255 255 255
0.057312 0.489701  5.56201 255 255 255
 0.419693 -0.026439   5.57923 255 255 255
0.325748 -2.48972  7.23691 255 255 255
0.857409 0.250783  5.83875 255 255 255
0.345397 -1.47288   6.2366 255 255 255
 1.07901 -2.03105  7.13804 255 255 255
-0.453712  0.552022   5.46743 255 255 255
-0.143303  -1.30132   6.09579 255 255 255
0.639018 -1.03771  5.94945 255 255 255
-0.444448  -1.27711    6.1527 255 255 255
-0.108465  0.794676   5.22854 255 255 255
  1.09277 -0.699345   6.13808 255 255 255
  1.97379 -0.639983   7.99175 255 255 255
9.10415 4.24684 20.5183 255 255 255
1.24706 1.39893 6.05939 255 255 255
 0.605082 -0.213051   5.82471 255 255 255
1.77896 1.13182 6.70183 255 255 255
1.26155 1.31747 6.06301 255 255 255
-4.22837  2.59196  9.59408 255 255 255
 0.836888 -0.848221   5.96103 255 255 255
0.483623 -1.20726  6.06327 255 255 255
 0.326226 -0.389697    5.7395 255 255 255
-0.567617 -0.432002   5.99565 255 255 255
0.458575  0.56478   5.5653 255 255 255
-0.00167119   -0.678191     5.73681 255 255 255
0.345397 -1.47288   6.2366 255 255 255
  1.13629 -0.465806   6.15518 255 255 255
 0.77724 0.132224  5.80054 255 255 255
-1.97024  1.94979  7.14159 255 255 255
  1.93905 -0.531282   7.86589 255 255 255
 0.248682 0.0930563   5.12433 255 255 255
-0.210452   -2.4037   7.05364 255 255 255
9.76365 3.60249 20.7288 255 255 255
9.27157 3.83354 20.7819 255 255 255
 0.877537 -0.542986   6.00702 255 255 255
   1.46201 -0.0294788    6.36141 255 255 255
10.9921 3.39631 23.6237 255 255 255
3.91574 2.52135 10.1612 255 255 255
 0.75961 -2.07614  6.91369 255 255 255
-0.5108 1.01604 5.35002 255 255 255
 0.595507 -0.542844   -1.2876 255 255 255
 1.19264 0.182941  6.11375 255 255 255
