# .PCD v0.7 - Point Cloud Data file format
VERSION 0.7
FIELDS x y z rgba
SIZE 4 4 4 4
TYPE F F F U
COUNT 1 1 1 1
WIDTH 1259
HEIGHT 1
VIEWPOINT 0 0 0 1 0 0 0
POINTS 1259
DATA ascii
-0.0381038 -0.0192473 3.33243 7702928
-0.0384449 -0.0192307 3.3327 15068402
-0.0378262 -0.0193137 3.3341 7830133
-0.0381762 -0.0192259 3.33231 6055783
-0.0386762 -0.0191859 3.33256 10397873
-0.0386092 -0.0191759 3.33208 11912140
-0.0384931 -0.0191801 3.3321 10332856
-0.0386504 -0.0191698 3.33238 8555423
-0.0383097 -0.019189 3.3321 9083299
-0.0381432 -0.0192048 3.33246 9017503
-0.0383594 -0.0191729 3.33222 12173511
-0.0384376 -0.0191531 3.33212 8226962
-0.0382594 -0.0191576 3.33257 10003885
-0.038639 -0.0191293 3.33234 8950689
-0.0386476 -0.0191138 3.33221 11187906
-0.0378558 -0.0191195 3.33293 6251367
-0.0386937 -0.0190997 3.33244 7764869
-0.0382742 -0.0190872 3.33338 2701645
-0.0385971 -0.0190942 3.33232 12502478
-0.0387265 -0.0190278 3.33328 8751760
-0.038603 -0.0190668 3.33217 12963547
-0.0385671 -0.0190451 3.33228 11649748
-0.0385697 -0.0190592 3.33211 7372694
-0.038373 -0.0190484 3.33224 9935780
-0.0381106 -0.0190403 3.33237 2959149
-0.0387456 -0.0189778 3.3326 5665419
-0.0385887 -0.0190117 3.33236 5266547
-0.0386467 -0.0189944 3.33234 10530239
-0.0387029 -0.0189891 3.33234 9016997
-0.0381286 -0.0190068 3.33235 3552051
-0.0386243 -0.0190851 3.33151 8162978
-0.0387695 -0.0189104 3.3327 3027008
-0.0386048 -0.0189944 3.33206 6516868
-0.0386987 -0.0189546 3.3323 10991815
-0.0381792 -0.0189812 3.33223 7637144
-0.0382115 -0.019042 3.33185 10128243
-0.0377692 -0.0188191 3.33318 4278096
-0.0387038 -0.0189392 3.33225 10994387
-0.0386302 -0.0189274 3.33228 11844543
-0.0373356 -0.0186116 3.3341 5597045
-0.0391394 -0.0183424 3.33529 4277831
-0.0386299 -0.0189053 3.33226 10267067
-0.0383771 -0.0190476 3.33155 5066572
-0.0392795 -0.0182083 3.33558 7362362
-0.0385006 -0.0189174 3.33216 11582928
-0.0386051 -0.0188878 3.33225 11517386
-0.0382523 -0.0188735 3.3323 8161433
-0.038617 -0.0189635 3.33186 11320779
-0.0381279 -0.0187672 3.33266 7561848
-0.0381575 -0.018936 3.33191 9931916
-0.0385767 -0.0190845 3.33124 3815232
-0.0385706 -0.0190955 3.33121 13553369
-0.0386644 -0.0190775 3.33126 2169637
-0.038583 -0.0196054 3.33241 3877668
-0.0385119 -0.0195345 3.33243 14017000
-0.0386144 -0.0194976 3.33236 9607068
-0.0384115 -0.0195435 3.33253 10727100
-0.03852 -0.0194423 3.33227 13883872
-0.0386558 -0.0192031 3.33231 12043728
-0.0387399 -0.0190725 3.33247 10792370
-0.0385681 -0.0190347 3.33217 4214376
-0.0387583 -0.0189502 3.33242 3423820
-0.0386623 -0.0190966 3.33139 5202035
-0.0387365 -0.0189313 3.33231 10006717
-0.0385467 -0.0189598 3.3321 10657958
-0.0387928 -0.0189391 3.33212 9608352
-0.038708 -0.0190672 3.33143 8617596
-0.0386031 -0.0189182 3.33222 10925763
-0.0384279 -0.0188284 3.33246 10070200
-0.0382811 -0.0190274 3.3316 6908005
-0.0385585 -0.0190279 3.33147 4211023
-0.0382738 -0.019678 3.33252 5844248
-0.0385997 -0.0194379 3.33186 7488812
-0.0385114 -0.0195438 3.33224 10000788
-0.038481 -0.0196001 3.33242 9283512
-0.0385659 -0.0194695 3.332 6964270
-0.0384134 -0.0195697 3.33234 8424343
-0.0383713 -0.0196072 3.33247 6906979
-0.0384092 -0.0195948 3.33242 8557210
-0.0384729 -0.0196313 3.33259 5201002
-0.0384216 -0.0195335 3.33223 5001821
-0.0383563 -0.0195743 3.33236 7026714
-0.0379721 -0.0199999 3.33379 5322018
-0.038405 -0.0195723 3.33239 8624298
-0.0384593 -0.0195445 3.33232 13622757
-0.0385016 -0.0195743 3.33245 4802639
-0.0383417 -0.0195561 3.33237 7224606
-0.0384232 -0.0194559 3.33205 10127739
-0.0383339 -0.0195362 3.33236 7095082
-0.0385381 -0.019456 3.33213 12832472
-0.0384818 -0.0195546 3.33255 13293021
-0.0385541 -0.0195055 3.33237 8953265
-0.0385918 -0.0194882 3.33232 12898518
-0.0383779 -0.0194875 3.33229 10924221
-0.0385915 -0.0194928 3.33238 12569300
-0.038508 -0.0194879 3.33238 14081508
-0.0384916 -0.0194202 3.33208 12699340
-0.038389 -0.0194692 3.33227 10003376
-0.0385821 -0.019482 3.33236 8950949
-0.0385168 -0.0194601 3.33228 11911111
-0.0382685 -0.0194648 3.33232 6385274
-0.0377558 -0.0206392 3.33791 14016228
-0.0384084 -0.0194434 3.33226 10596027
-0.0383771 -0.0194698 3.33241 11516356
-0.0383868 -0.0194339 3.33226 9740463
-0.038227 -0.0194921 3.3325 9480111
-0.0385445 -0.019366 3.33197 9212319
-0.0383906 -0.0194611 3.33241 11911114
-0.0385078 -0.0194851 3.33258 10201011
-0.0384306 -0.0194171 3.33223 7044753
-0.0384054 -0.0194018 3.33213 11649226
-0.038407 -0.0193798 3.33205 8950947
-0.0384686 -0.0194107 3.33223 9016742
-0.0386531 -0.0194263 3.33238 12568267
-0.0383874 -0.0194035 3.3322 8885153
-0.0382078 -0.0194676 3.33247 5858669
-0.038593 -0.0194121 3.33231 12043213
-0.038374 -0.0194067 3.33224 8951457
-0.0386489 -0.0194295 3.33242 12634066
-0.0386241 -0.0194085 3.33236 8949661
-0.0382843 -0.0194075 3.33229 7702167
-0.0384486 -0.019373 3.33214 11647430
-0.0384206 -0.0193827 3.3322 13226715
-0.0383512 -0.0193943 3.33227 10133934
-0.0385883 -0.0193736 3.33224 10069684
-0.0386201 -0.0193944 3.33239 11187910
-0.0382403 -0.019401 3.33235 10071736
-0.0382319 -0.0194029 3.33234 6784143
-0.0386345 -0.0193927 3.3324 6385537
-0.0386547 -0.0194124 3.33252 10465213
-0.0384696 -0.0193696 3.33221 12766167
-0.0386442 -0.0193862 3.33234 11451841
-0.0382019 -0.0193982 3.33237 5067344
-0.0384275 -0.019359 3.33218 13490658
-0.0382334 -0.0194111 3.33242 7504274
-0.038579 -0.0193562 3.33221 7900313
-0.0382694 -0.0193621 3.33224 7373201
-0.0384918 -0.0193449 3.33219 12569044
-0.0383011 -0.0193399 3.33217 8622492
-0.0386579 -0.019349 3.33233 6582402
-0.0384054 -0.0193496 3.33225 12570329
-0.0382785 -0.0193461 3.33225 10398901
-0.038428 -0.0193347 3.3322 10923956
-0.0383236 -0.0193498 3.33227 12831696
-0.0383314 -0.0193487 3.33234 6647674
-0.0381661 -0.0193686 3.33243 6450539
-0.0384308 -0.0193067 3.33204 10729666
-0.0384442 -0.0193213 3.33217 13424094
-0.0383423 -0.0193304 3.33224 11978952
-0.0381396 -0.019371 3.33251 6514528
-0.0384473 -0.0193071 3.33212 10792636
-0.0382443 -0.0193265 3.33228 9873844
-0.0382413 -0.0193221 3.33224 4737866
-0.0384864 -0.0193069 3.33218 14674157
-0.0386105 -0.0192893 3.33208 6056055
-0.038559 -0.0193004 3.33218 4082267
-0.0382443 -0.0193169 3.33227 7900310
-0.0386634 -0.0192657 3.33196 6910079
-0.0382795 -0.0193069 3.33223 9213856
-0.0382644 -0.019338 3.3325 7306629
-0.0382614 -0.0193174 3.33241 10925503
-0.0382488 -0.0193038 3.33232 8030096
-0.0382329 -0.0192946 3.33237 7438477
-0.0384684 -0.0192637 3.33216 9278106
-0.0385625 -0.0192556 3.33206 7370879
-0.038086 -0.0193091 3.3325 9414836
-0.0386402 -0.0192498 3.33207 10726838
-0.0385478 -0.0192536 3.33215 8292239
-0.0385852 -0.019236 3.3319 4343625
-0.0386503 -0.0192544 3.33215 7963534
-0.0384479 -0.0192612 3.33217 9148576
-0.0385047 -0.0192437 3.33207 12240593
-0.0383507 -0.0192595 3.3322 2633274
-0.0382851 -0.0192604 3.33221 5199455
-0.0381441 -0.0192818 3.33247 8031628
-0.0382106 -0.0192581 3.33226 8820632
-0.0385259 -0.0192442 3.33216 11845575
-0.0382214 -0.0192544 3.33228 9212814
-0.0384477 -0.0192413 3.33219 8028815
-0.0382133 -0.0192436 3.33218 7044482
-0.0385744 -0.0192304 3.33215 11187903
-0.0382424 -0.019248 3.33231 3949647
-0.0386866 -0.0192411 3.33239 5791857
-0.0384892 -0.019229 3.33211 9543084
-0.0386138 -0.0192331 3.33228 5524810
-0.0376759 -0.0193438 3.33384 4740441
-0.037975 -0.0192799 3.33286 5133655
-0.0380782 -0.019262 3.33245 6178619
-0.0385364 -0.0191998 3.3317 13291734
-0.0380911 -0.0192578 3.33263 8492701
-0.0381482 -0.0192429 3.33237 3157036
-0.0386278 -0.0191853 3.33156 10857136
-0.0385635 -0.0192159 3.33208 11320777
-0.038701 -0.0192249 3.33244 5133407
-0.0386777 -0.0192147 3.3322 8754336
-0.0380907 -0.0192374 3.33247 4146502
-0.0383716 -0.019209 3.33209 7700102
-0.0381466 -0.0192175 3.33231 6913937
-0.0386004 -0.0191845 3.33183 13951464
-0.0385297 -0.0191981 3.33212 12108493
-0.0381331 -0.0192105 3.33239 7438474
-0.0386982 -0.0191902 3.33232 5331045
-0.038639 -0.0191938 3.33222 12570324
-0.0385062 -0.0192363 3.33344 11517130
-0.0384588 -0.0191951 3.33211 9150374
-0.0384409 -0.0191941 3.3321 9280934
-0.0381562 -0.019206 3.33238 6055015
-0.0386987 -0.019189 3.33247 6978699
-0.0385234 -0.0191861 3.33207 11779266
-0.0383196 -0.019191 3.33221 9871792
-0.0385915 -0.019175 3.33204 13950693
-0.0386713 -0.0191776 3.33225 8818071
-0.0385091 -0.019172 3.33209 14476774
-0.0384263 -0.0191703 3.33189 10661818
-0.0382287 -0.0191797 3.33228 5462106
-0.0386772 -0.0191697 3.3322 8095632
-0.0383065 -0.019174 3.33202 4936023
-0.0387196 -0.0191555 3.33256 11052451
-0.0385017 -0.0191634 3.33187 12504018
-0.0385579 -0.019163 3.33215 11912398
-0.0383368 -0.0191662 3.33217 10793402
-0.0386702 -0.0191549 3.33233 10396587
-0.0386216 -0.0191535 3.33221 9345189
-0.038277 -0.0191562 3.33232 6254460
-0.0384337 -0.0191433 3.33233 7437191
-0.0383261 -0.0191437 3.33216 5134437
-0.0387096 -0.0191334 3.33232 9408912
-0.0381879 -0.0191502 3.33241 6713720
-0.0385219 -0.0191412 3.3319 7436932
-0.0381037 -0.0191359 3.33243 6384234
-0.0385613 -0.0191295 3.33205 2370620
-0.0383313 -0.0191292 3.33217 6976896
-0.038191 -0.019128 3.3323 6056045
-0.0381942 -0.0191314 3.33227 8096142
-0.0380326 -0.0191188 3.33247 6513770
-0.0386212 -0.019121 3.33222 10201008
-0.038387 -0.0191224 3.33219 5858414
-0.0383079 -0.0191136 3.33236 8621462
-0.0381852 -0.0191174 3.33228 7569545
-0.0383601 -0.0190854 3.33287 2635081
-0.0386333 -0.0191078 3.33215 12305615
-0.0387046 -0.0190935 3.3323 7633018
-0.0387394 -0.019091 3.33238 9937835
-0.0380587 -0.0190912 3.33243 5392965
-0.0383133 -0.0190916 3.3322 5989231
-0.0379684 -0.0190678 3.33264 6381663
-0.0386917 -0.0190858 3.33222 8094086
-0.038096 -0.0190774 3.33239 9610403
-0.0380523 -0.0190773 3.33235 9212814
-0.0386707 -0.0191063 3.33175 7176590
-0.038412 -0.0190819 3.33214 11516353
-0.0386544 -0.019073 3.33221 10793920
-0.0380086 -0.0190463 3.33257 5593944
-0.0387352 -0.0190577 3.33232 8882571
-0.0380793 -0.0190087 3.33307 5397347
-0.0381322 -0.0190602 3.33234 5200479
-0.0381512 -0.0190652 3.33227 5594980
-0.0384075 -0.0190627 3.33211 8950683
-0.0385534 -0.0190675 3.3321 11384512
-0.0383187 -0.0190617 3.33216 5661037
-0.0386707 -0.0190495 3.33225 11779272
-0.038407 -0.0190566 3.33214 9872041
-0.0383886 -0.0190577 3.33212 6778490
-0.0386922 -0.0190382 3.33227 9871534
-0.0386744 -0.0190873 3.33171 11451075
-0.038424 -0.0190541 3.33211 3948361
-0.0384145 -0.0190498 3.33209 7240581
-0.0379753 -0.0190097 3.33255 9610149
-0.0386263 -0.0190437 3.33215 12569296
-0.038736 -0.0190017 3.33253 9149870
-0.0385803 -0.0190408 3.33215 4938353
-0.0382795 -0.019079 3.33169 7960183
-0.0381571 -0.0190273 3.33229 4079687
-0.0386697 -0.0190374 3.33211 8161434
-0.0382299 -0.0189537 3.33297 4344922
-0.0380676 -0.0190143 3.33237 7966363
-0.0387436 -0.0189888 3.33252 6849691
-0.0379984 -0.0190025 3.33245 4407870
-0.038373 -0.019028 3.33218 8094346
-0.038102 -0.0190177 3.33226 5726816
-0.0385604 -0.0190269 3.33214 10135988
-0.0378535 -0.0189569 3.33275 4867398
-0.0382711 -0.0190715 3.33168 5392968
-0.0387435 -0.0189848 3.33242 4873072
-0.0386701 -0.0190006 3.33226 8818588
-0.0381951 -0.0190343 3.33192 9340018
-0.0367277 -0.0187777 3.33411 8419955
-0.0385023 -0.0190314 3.33194 3816519
-0.0387453 -0.0189691 3.33241 8361384
-0.0368921 -0.0187864 3.33388 5983553
-0.0368062 -0.018786 3.33392 12162676
-0.0387197 -0.0189715 3.33231 6717841
-0.0381329 -0.0189741 3.33231 3357249
-0.0387202 -0.0189479 3.33245 4148830
-0.0386374 -0.0189835 3.3322 10134707
-0.0386091 -0.0189859 3.33219 8490399
-0.0381283 -0.018968 3.33233 8165801
-0.0385761 -0.0190744 3.33153 8488332
-0.037461 -0.0187936 3.33355 7831164
-0.0372587 -0.0187746 3.33372 8157040
-0.037749 -0.0189245 3.33262 8218707
-0.0380853 -0.0189483 3.33243 6057343
-0.0370131 -0.0187487 3.33378 5722966
-0.0387757 -0.0184853 3.3354 8226448
-0.0371596 -0.0187859 3.33349 6320505
-0.0368672 -0.0186165 3.33453 5326658
-0.0386036 -0.0189756 3.33215 9873073
-0.0385972 -0.0189678 3.33216 8359585
-0.038131 -0.0189547 3.33228 5926520
-0.0386405 -0.0189746 3.33214 7240077
-0.0377455 -0.0188374 3.33301 5196361
-0.0369243 -0.0187003 3.33383 6449259
-0.0387267 -0.0189322 3.33235 7505562
-0.0386058 -0.0189607 3.33217 10597318
-0.0380969 -0.0188894 3.33261 4407877
-0.0385341 -0.019097 3.33135 6187120
-0.0384117 -0.0189744 3.33203 6382960
-0.0375334 -0.0188346 3.33289 6647672
-0.0375836 -0.0188323 3.33288 5129538
-0.0385591 -0.0189896 3.33192 8289151
-0.0386203 -0.0191312 3.33112 5923438
-0.038102 -0.0189571 3.33208 5525327
-0.0376562 -0.0187898 3.33306 4867907
-0.0369323 -0.0186618 3.33377 5527391
-0.0386308 -0.0189729 3.33199 7964311
-0.0389593 -0.0186596 3.33374 7634046
-0.0386879 -0.0189083 3.33234 6253442
-0.0379099 -0.0189376 3.33215 6115659
-0.038684 -0.0189102 3.33231 4212056
-0.0385385 -0.0189399 3.33216 10793152
-0.0385478 -0.0189499 3.33209 13819880
-0.0377346 -0.0188413 3.33268 7170916
-0.0386688 -0.0189439 3.3321 9345189
-0.0372693 -0.0186608 3.3336 8883093
-0.0386248 -0.0189291 3.33218 9083051
-0.0383278 -0.0190271 3.33163 5526355
-0.0378878 -0.018835 3.33266 10070963
-0.038858 -0.0188336 3.33265 7828589
-0.0385136 -0.0189274 3.33216 11188423
-0.0382693 -0.0189221 3.33217 8096920
-0.0373338 -0.0187152 3.33328 7105646
-0.0387565 -0.0189529 3.33202 4805466
-0.0388802 -0.0186891 3.33339 7966622
-0.0380422 -0.0188299 3.3326 6318711
-0.0367662 -0.0185546 3.33399 5860212
-0.0387046 -0.0188887 3.3323 11127518
-0.03868 -0.0188904 3.33228 4673891
-0.0382045 -0.0188976 3.33225 7305083
-0.0384659 -0.0190304 3.33159 5460825
-0.0387657 -0.018869 3.33236 6585225
-0.0386968 -0.0188402 3.33248 6387596
-0.038575 -0.0189189 3.33212 9609905
-0.0381262 -0.0188666 3.33236 7505044
-0.0379226 -0.0188769 3.33229 11774115
-0.0388862 -0.0186455 3.33345 4804957
-0.0385911 -0.0189184 3.3321 7700890
-0.0384827 -0.018806 3.33265 10859975
-0.0387153 -0.0189063 3.33212 7112861
-0.0386778 -0.0188792 3.33229 8887216
-0.038614 -0.0189079 3.33214 11320520
-0.0385333 -0.0190806 3.33133 13291730
-0.0386832 -0.0189065 3.33211 9350079
-0.0386313 -0.0189058 3.33213 6911884
-0.0386964 -0.0188777 3.33223 6847116
-0.0381573 -0.0188592 3.33233 8813696
-0.0387506 -0.0188188 3.33252 5201769
-0.0387131 -0.0188472 3.33238 3950165
-0.0385144 -0.0189323 3.33199 10003376
-0.0384098 -0.0189017 3.3321 12047319
-0.0387103 -0.018864 3.33228 3295323
-0.0387104 -0.0188389 3.33242 5993862
-0.0385585 -0.0190698 3.33136 6516866
-0.0385244 -0.019055 3.33143 7501439
-0.0369407 -0.0180706 3.33599 12699852
-0.0389226 -0.0185702 3.33362 5332327
-0.0385536 -0.0188992 3.33213 7570068
-0.0385998 -0.0189273 3.33197 9544627
-0.0385302 -0.0188712 3.33226 11188671
-0.0386917 -0.0188634 3.33227 4940922
-0.0383407 -0.0189867 3.3317 10791346
-0.0386765 -0.0188609 3.33225 9282745
-0.0385864 -0.0189017 3.3321 10466755
-0.0385322 -0.0189106 3.33206 9544367
-0.0385131 -0.0189641 3.33178 7238533
-0.0383723 -0.0190276 3.33155 5919851
-0.0387093 -0.0188312 3.33238 8162718
-0.0385471 -0.0188701 3.33223 8160914
-0.0386828 -0.0190601 3.33137 7961205
-0.0387912 -0.0189154 3.33196 4672857
-0.0387319 -0.0189939 3.33167 9216173
-0.0385513 -0.0189626 3.33177 5396582
-0.0385708 -0.0191055 3.33119 5459021
-0.0386248 -0.0190725 3.33131 10860977
-0.0385733 -0.0190679 3.33134 3749949
-0.0388773 -0.0189134 3.33196 5328448
-0.038636 -0.018892 3.33205 7765117
-0.0378569 -0.0186215 3.33323 5460838
-0.0386503 -0.0190948 3.33122 5197930
-0.0387423 -0.0190004 3.33162 3884357
-0.0386609 -0.0190465 3.3314 6582674
-0.03878 -0.0187896 3.33247 9941957
-0.0386196 -0.0188784 3.3321 9475235
-0.0386091 -0.0191122 3.33114 4670289
-0.0384817 -0.0190499 3.33139 7169125
-0.0384501 -0.0190447 3.3314 3683137
-0.0384686 -0.019048 3.33139 7563652
-0.0150047 -0.0058034 3.38328 7687725
-0.0387375 -0.0189842 3.33166 3952224
-0.0387416 -0.0189808 3.33167 5332585
-0.0389023 -0.0187368 3.33265 7043724
-0.0385993 -0.019005 3.33157 11315886
-0.0384465 -0.0190404 3.33141 10724782
-0.0386687 -0.0190786 3.33126 3619158
-0.0386581 -0.0190782 3.33126 8815771
-0.0386114 -0.0191113 3.33114 14209480
-0.0385845 -0.0190586 3.33133 8951939
-0.0385953 -0.019059 3.33133 11709616
-0.0386637 -0.0191013 3.33118 11253189
-0.0386498 -0.0190529 3.33134 3027007
-0.0384695 -0.0190531 3.33134 5985887
-0.0386237 -0.0188469 3.33211 6447215
-0.0381449 -0.0186694 3.33271 8554660
-0.0385417 -0.019073 3.33126 7296586
-0.038611 -0.019102 3.33116 11178109
-0.0380738 -0.0184752 3.3334 10534575
-0.0383275 -0.0188763 3.33196 10060409
-0.0388795 -0.0185431 3.33313 5858682
-0.0379685 -0.0200412 3.3339 6370333
-0.0385135 -0.0195904 3.3324 10722452
-0.0383846 -0.0195624 3.33236 5726566
-0.0385934 -0.0195503 3.33251 7032385
-0.0386109 -0.0195308 3.3325 9738656
-0.0384881 -0.0195114 3.33239 10661820
-0.0385315 -0.0193649 3.33182 10134963
-0.0386162 -0.0194941 3.33247 7238519
-0.0382485 -0.0195055 3.33256 9675695
-0.0381167 -0.019595 3.33289 6254979
-0.038433 -0.0194198 3.33223 9281456
-0.0384182 -0.0194148 3.33223 5133923
-0.038617 -0.0193493 3.33215 10991041
-0.0385892 -0.0194363 3.33274 8490139
-0.0385787 -0.0193443 3.3322 6780031
-0.0382143 -0.0194367 3.33284 6647417
-0.038554 -0.0193229 3.3322 12108487
-0.0383838 -0.0193442 3.33231 9807795
-0.0383592 -0.0193098 3.33218 10727860
-0.0381728 -0.0193087 3.33237 6583412
-0.0386594 -0.0192705 3.33232 10398647
-0.0386378 -0.0192557 3.33232 7504014
-0.0381664 -0.0192338 3.33241 8293768
-0.0385078 -0.0192137 3.33248 14148329
-0.0386595 -0.0192017 3.33222 11648199
-0.0386512 -0.0192071 3.33241 12306898
-0.0386661 -0.019186 3.33201 12241104
-0.0381424 -0.0192026 3.33239 3422009
-0.0384878 -0.0191846 3.33209 12241364
-0.0383689 -0.0191893 3.33213 8161174
-0.0384528 -0.019181 3.33213 5725543
-0.0380988 -0.0191867 3.33245 9416901
-0.03801 -0.0191636 3.33259 11960147
-0.0385153 -0.0191597 3.33151 4475475
-0.0383123 -0.0191386 3.33221 5001565
-0.0385043 -0.0191222 3.33196 3161938
-0.0384411 -0.0191109 3.33216 4413808
-0.0385642 -0.0190881 3.33206 6974586
-0.0383802 -0.0190788 3.33207 6777973
-0.0381361 -0.0190432 3.33236 5792359
-0.0385857 -0.01906 3.33202 7373457
-0.0385245 -0.01903 3.33228 3621456
-0.0379846 -0.0190097 3.3325 8952985
-0.0385438 -0.0190355 3.33213 14017258
-0.0385726 -0.0190057 3.3322 7899033
-0.0381783 -0.0189798 3.33224 7439507
-0.0387234 -0.0189796 3.33208 7963794
-0.0373984 -0.018789 3.33322 8226176
-0.0387098 -0.0189337 3.33229 11587034
-0.0377641 -0.0188571 3.33276 5524808
-0.0383037 -0.0190277 3.33169 7830136
-0.0389208 -0.0187081 3.33351 7305849
-0.0386148 -0.0189412 3.33216 11715023
-0.0386306 -0.0191016 3.33124 3951195
-0.0390333 -0.0180134 3.33659 6518141
-0.0385204 -0.0189481 3.33202 11714250
-0.0381137 -0.0188677 3.3324 6911876
-0.0386364 -0.0189183 3.33211 7636374
-0.0386668 -0.0188921 3.33217 4411749
-0.0386117 -0.0189412 3.33194 10202556
-0.0388965 -0.0185621 3.33366 3093308
-0.0385913 -0.0189163 3.33206 10662850
-0.0383661 -0.0189887 3.33173 9872045
-0.0385296 -0.0189097 3.33207 9805482
-0.0385177 -0.0189098 3.33205 6843006
-0.0385838 -0.0190937 3.33121 13619926
-0.0382846 -0.0190034 3.33158 9406132
-0.0386502 -0.0191067 3.33117 8814208
-0.038609 -0.0191126 3.33114 5327446
-0.0387531 -0.0190077 3.33157 4409940
-0.031241 -0.0158966 3.34313 11371110
-0.0386362 -0.0190862 3.33122 2961726
-0.038662 -0.0190951 3.33118 4210249
-0.0383494 -0.0196275 3.33237 2433057
-0.0385722 -0.0194215 3.33199 12965084
-0.0384449 -0.0194839 3.33231 11318463
-0.0384225 -0.0194176 3.33223 9806512
-0.0382002 -0.0194519 3.33244 9743024
-0.0384353 -0.0193488 3.3322 14016743
-0.0384505 -0.0193141 3.33224 4477281
-0.0383655 -0.0192414 3.33202 6318965
-0.0384038 -0.0191474 3.33225 6582394
-0.0383911 -0.0191015 3.33187 5660780
-0.0381159 -0.0189745 3.33236 8231586
-0.0382514 -0.018927 3.33211 4802641
-0.0384896 -0.0188996 3.33217 11911625
-0.0386787 -0.0190972 3.33122 7304055
-0.0386435 -0.0190777 3.3313 3487805
-0.0386098 -0.0190989 3.33119 8225929
-0.038423 -0.0188312 3.33215 10405818
-0.0386485 -0.0190888 3.3312 3752044
-0.0384527 -0.0194637 3.33193 4467491
-0.0384139 -0.0197973 3.33303 8158589
-0.0384979 -0.0195726 3.33236 8823474
-0.0384714 -0.0193724 3.33168 7301222
-0.0385408 -0.0195206 3.33224 8221032
-0.0384781 -0.0195431 3.33231 13359583
-0.0384509 -0.0195227 3.33224 10532547
-0.0385494 -0.0195658 3.33243 8482922
-0.0385622 -0.01954 3.33236 11776684
-0.0383771 -0.0195185 3.33227 12043473
-0.0385851 -0.019561 3.33246 8086616
-0.0385051 -0.0194667 3.33213 13819877
-0.0384691 -0.0194936 3.33224 13160661
-0.0385788 -0.0194406 3.33208 11453387
-0.0384183 -0.0195654 3.33255 12175056
-0.0385508 -0.0194914 3.33228 8888244
-0.0384193 -0.0194967 3.33231 13621729
-0.0384428 -0.0194528 3.33216 9412269
-0.038338 -0.019499 3.33233 11451843
-0.0384122 -0.0194814 3.33228 9017772
-0.0385043 -0.0194378 3.33216 11320775
-0.0385143 -0.0193762 3.33187 10530748
-0.038402 -0.0194673 3.33227 8490658
-0.0386123 -0.0194635 3.33233 10795208
-0.0383513 -0.0194298 3.33217 11451333
-0.0384818 -0.0194849 3.33251 11185848
-0.0386093 -0.0194319 3.33229 8555165
-0.0384123 -0.0194248 3.33223 12437457
-0.0383027 -0.0194363 3.33227 10465981
-0.0382855 -0.0194261 3.33223 6714239
-0.03828 -0.0194322 3.33227 10663105
-0.0385595 -0.0194254 3.33229 9871534
-0.0375282 -0.0201564 3.33599 8754594
-0.0382531 -0.0194208 3.33226 4938591
-0.0383016 -0.0194106 3.33222 8359322
-0.0384335 -0.0197156 3.33386 12109008
-0.038526 -0.0194379 3.33244 12767191
-0.0382494 -0.0201372 3.33615 10728897
-0.0382151 -0.0194335 3.33239 6254969
-0.0384914 -0.0193889 3.3322 13095384
-0.0382204 -0.019417 3.3323 7436418
-0.0384063 -0.019373 3.3321 12635349
-0.0383425 -0.0193998 3.33225 7439001
-0.0382791 -0.0194351 3.33244 8621461
-0.0382557 -0.019396 3.33221 4740180
-0.0386381 -0.0193931 3.33229 8426146
-0.038254 -0.0194009 3.33226 3884876
-0.0384883 -0.0193852 3.33223 10398644
-0.0381904 -0.019498 3.33284 7767187
-0.0382516 -0.0193893 3.33225 7243926
-0.0386617 -0.0193893 3.33233 10987952
-0.0384132 -0.0193101 3.33182 9805996
-0.0386107 -0.0193898 3.33234 12701142
-0.0383729 -0.0193684 3.33218 8885153
-0.0382386 -0.0193973 3.3323 4478561
-0.0382538 -0.0193845 3.33227 8821924
-0.0384719 -0.0193468 3.33219 8819616
-0.0383441 -0.0193518 3.3322 5067352
-0.0382339 -0.0194297 3.33272 7042690
-0.0383636 -0.0193086 3.33192 8359835
-0.038657 -0.0193632 3.33236 5663609
-0.0383704 -0.0193574 3.33233 11057861
-0.0385265 -0.0193255 3.33211 13818336
-0.0383576 -0.0193376 3.33218 10661813
-0.0381981 -0.0193647 3.33234 5528150
-0.0385722 -0.0193303 3.33218 5662578
-0.0386316 -0.0193397 3.33232 12307671
-0.0386124 -0.0193306 3.33226 8555157
-0.0383845 -0.0193366 3.33227 11319488
-0.0385231 -0.0193053 3.33211 9410977
-0.0383507 -0.0193213 3.3322 6582652
-0.0382911 -0.0193261 3.33224 8427426
-0.0386738 -0.0193168 3.3323 12767192
-0.0383818 -0.0193137 3.33218 8621982
-0.0383257 -0.0193205 3.33222 9214375
-0.0386568 -0.0193181 3.33231 6781065
-0.0385148 -0.0192986 3.33216 13622244
-0.0382031 -0.0193258 3.33231 6185822
-0.0381545 -0.0193293 3.33232 4013111
-0.0385516 -0.0192911 3.3321 5925241
-0.0381692 -0.0193271 3.33233 9020581
-0.0382459 -0.0193112 3.33229 10927812
-0.0386552 -0.019287 3.33221 8359839
-0.0383319 -0.019292 3.33219 3226700
-0.0383265 -0.0192907 3.33218 5593186
-0.0381943 -0.0193056 3.3323 8095362
-0.0382732 -0.0192946 3.33223 6054759
-0.0383904 -0.0192815 3.33214 2768981
-0.0383489 -0.0192844 3.33219 4346726
-0.0386487 -0.0193132 3.33258 10663613
-0.0383273 -0.0192724 3.33205 6583423
-0.0384935 -0.0192713 3.33215 12569548
-0.0383046 -0.0192816 3.3322 7966359
-0.0382945 -0.0192833 3.33222 4542302
-0.0386756 -0.0192659 3.33223 8292501
-0.0385778 -0.0192643 3.33217 4278093
-0.0381109 -0.0192883 3.33237 6377027
-0.0385992 -0.0192634 3.33223 5134176
-0.0381503 -0.0192805 3.3323 3292221
-0.0386713 -0.0192559 3.3322 8294300
-0.0382596 -0.0192667 3.33222 7701387
-0.0381682 -0.0192696 3.33227 8362141
-0.0385479 -0.0192436 3.3322 12702682
-0.0381971 -0.0192649 3.33232 3157545
-0.0381663 -0.0192613 3.33227 4278859
-0.0384744 -0.019245 3.33217 7174794
-0.0386764 -0.0192415 3.33232 8029588
-0.0384502 -0.01924 3.3322 5792105
-0.0382357 -0.0192451 3.3322 3421233
-0.038431 -0.0192376 3.33222 10925759
-0.0381947 -0.0192429 3.3323 3882814
-0.0382992 -0.0192324 3.33219 8163230
-0.0382791 -0.0192341 3.33215 2107439
-0.0381745 -0.0192301 3.33227 3291710
-0.0385332 -0.0192103 3.33206 12702425
-0.0381846 -0.0192193 3.33227 4474954
-0.0384341 -0.0192093 3.33216 8689829
-0.0383822 -0.0192142 3.33226 10069931
-0.0384308 -0.0192064 3.3321 11387087
-0.0381333 -0.019216 3.33227 7765880
-0.038487 -0.0192005 3.33206 9609386
-0.0381751 -0.0192098 3.33226 3622474
-0.038249 -0.0192048 3.33219 8096657
-0.038182 -0.0192031 3.33227 4145985
-0.0386982 -0.0191958 3.33229 10332084
-0.038478 -0.0191944 3.33208 9215150
-0.0382969 -0.0192059 3.33239 9215147
-0.03826 -0.0192012 3.33223 6977921
-0.0385221 -0.0191909 3.33224 11254208
-0.0382487 -0.0192053 3.33259 9742519
-0.0382134 -0.0191995 3.33235 5857637
-0.0381522 -0.0191984 3.33228 8234167
-0.0382342 -0.0191902 3.33226 9414060
-0.0384258 -0.0191867 3.33218 11977418
-0.0382915 -0.0191867 3.33218 9743024
-0.0380677 -0.0192003 3.33266 5660256
-0.0382013 -0.0191889 3.33229 8425617
-0.0382875 -0.0191763 3.33205 8162446
-0.0386312 -0.0191713 3.33219 9543855
-0.0385245 -0.0191808 3.33272 13226973
-0.0383755 -0.019175 3.33209 10266802
-0.0382434 -0.019181 3.33224 5593689
-0.0384645 -0.0191732 3.33208 6911363
-0.0384535 -0.0191737 3.33215 11518921
-0.0382933 -0.0191743 3.33207 6120292
-0.038199 -0.0191769 3.33223 6384747
-0.0381536 -0.0191741 3.33232 5070945
-0.0386118 -0.0191665 3.33219 13754087
-0.0382237 -0.01917 3.33221 7439750
-0.038672 -0.0191561 3.33226 8489620
-0.0385148 -0.0191587 3.33212 10792880
-0.0384658 -0.0191589 3.33226 6252147
-0.0383702 -0.0191597 3.33228 11648455
-0.0386913 -0.0191541 3.33221 9147549
-0.0385554 -0.0191559 3.33214 8622754
-0.0385288 -0.0191552 3.33202 12503241
-0.038487 -0.0191566 3.3321 8688547
-0.038268 -0.019157 3.33226 4937051
-0.0381767 -0.0191613 3.33225 7768458
-0.0381062 -0.0191617 3.33234 12091985
-0.0383431 -0.0191564 3.33215 10267318
-0.0381319 -0.0191574 3.33237 6911348
-0.0383656 -0.0191511 3.33217 8687257
-0.0381091 -0.0191505 3.33241 5067857
-0.0382023 -0.0191465 3.33224 8228490
-0.0385009 -0.0191423 3.33204 5727090
-0.0381145 -0.0191321 3.33315 6121585
-0.0387066 -0.0191279 3.33222 10855837
-0.0385056 -0.0191388 3.33212 9345188
-0.0382959 -0.0191375 3.33219 4806244
-0.0383908 -0.0191273 3.33257 3422789
-0.0383447 -0.0191283 3.33225 7633797
-0.0382295 -0.0191353 3.3322 3752777
-0.0382309 -0.0191329 3.33217 5332582
-0.038592 -0.0191211 3.33217 10596286
-0.0382398 -0.0191237 3.3322 3029572
-0.0382273 -0.0191289 3.33216 4673107
-0.0380387 -0.0191034 3.33246 9018529
-0.0387024 -0.0191119 3.3322 7309204
-0.0385657 -0.0191218 3.33201 7966880
-0.0382218 -0.0191164 3.33219 6451061
-0.0380698 -0.0191003 3.33238 4537918
-0.0380831 -0.0191083 3.33229 7889489
-0.0382158 -0.0191104 3.33219 7370878
-0.0385915 -0.0191024 3.33218 12898009
-0.0380614 -0.0190995 3.3324 7306625
-0.0383281 -0.0190988 3.33226 6448755
-0.0383899 -0.0191001 3.33215 8293530
-0.0383202 -0.019102 3.33216 4410199
-0.0383493 -0.0190919 3.33214 5594731
-0.0380913 -0.0190862 3.33229 8951700
-0.038201 -0.0190851 3.33221 4935761
-0.0380765 -0.0190775 3.33232 5789780
-0.0384099 -0.0190908 3.33209 10992579
-0.0383866 -0.0190914 3.33205 7436414
-0.0381945 -0.0190822 3.33217 3357247
-0.0385602 -0.0190815 3.3321 8950435
-0.0380683 -0.0190739 3.33227 7630952
-0.0381368 -0.0190845 3.33216 4737095
-0.0380865 -0.0190639 3.33231 7240055
-0.0381569 -0.0190615 3.33228 6386556
-0.0385569 -0.019053 3.33226 9675181
-0.038394 -0.0190632 3.33212 10858680
-0.03835 -0.0190555 3.33225 6779516
-0.0382497 -0.0190605 3.33219 3883333
-0.0378964 -0.0190135 3.3327 8483686
-0.0383714 -0.0190674 3.33206 7106426
-0.0383804 -0.0190541 3.33211 7041657
-0.0382282 -0.0190516 3.33218 3554369
-0.0386954 -0.0190416 3.33222 7106938
-0.0386394 -0.0190464 3.33217 10529459
-0.0383673 -0.0190503 3.33213 8225418
-0.038084 -0.0190386 3.33227 6841952
-0.0387118 -0.0190297 3.33229 10531261
-0.0379015 -0.019008 3.33257 9534570
-0.0376821 -0.0189484 3.33313 9338219
-0.0386089 -0.0190456 3.33209 8096668
-0.0388094 -0.0189038 3.33353 9018540
-0.038601 -0.0190418 3.33211 6252926
-0.0380425 -0.0190187 3.33236 8756382
-0.0380826 -0.0190252 3.33226 10137514
-0.0380229 -0.0190217 3.3323 5855834
-0.0381905 -0.0190303 3.33219 5531506
-0.0387091 -0.0190191 3.33222 7769759
-0.0386725 -0.0190152 3.33225 11122882
-0.0379046 -0.0189839 3.33258 6974570
-0.0379522 -0.0189996 3.33243 4668470
-0.0377309 -0.0189237 3.33302 6648182
-0.038549 -0.0190366 3.332 9281199
-0.0381597 -0.0190103 3.33224 7043708
-0.0377683 -0.0189847 3.33242 8026226
-0.0387293 -0.0190052 3.33222 5069162
-0.0387302 -0.0189976 3.33231 7640488
-0.0386226 -0.0190135 3.33218 6583170
-0.0385579 -0.0190174 3.33213 10269121
-0.0379173 -0.0189828 3.33244 6644311
-0.0377106 -0.0189757 3.33254 7366749
-0.0384188 -0.0190182 3.33212 4808048
-0.0386536 -0.0190096 3.33213 11057350
-0.0385462 -0.0190126 3.33213 5135213
-0.0385247 -0.0190204 3.33207 4409686
-0.0378391 -0.0189469 3.33267 4668217
-0.0381698 -0.0189944 3.33226 7373195
-0.0381427 -0.0189951 3.33225 7243154
-0.0377555 -0.0189677 3.33246 7039334
-0.0387292 -0.0189972 3.3322 4475738
-0.0385923 -0.0190033 3.33215 8427433
-0.0380288 -0.0189724 3.3324 8224386
-0.0377355 -0.0188954 3.333 6646120
-0.0386795 -0.0189854 3.33221 9544883
-0.0385549 -0.0190047 3.3321 4808049
-0.0380298 -0.0189763 3.33229 4471346
-0.0386491 -0.0189805 3.33225 11188675
-0.0382155 -0.0190011 3.3321 7965589
-0.0382311 -0.0190527 3.33172 5063485
-0.0381517 -0.0189822 3.33222 5727338
-0.0380335 -0.018963 3.33237 8226952
-0.0387376 -0.0189775 3.33224 4537923
-0.0387288 -0.0189724 3.33228 9020855
-0.0380492 -0.0189754 3.33226 7110008
-0.0378509 -0.0189323 3.33255 7038820
-0.0376022 -0.0188679 3.33304 7631218
-0.0377263 -0.0189231 3.33266 9800054
-0.0377594 -0.0189457 3.33246 8294034
-0.038628 -0.0189775 3.33219 10859710
-0.0384334 -0.018989 3.33213 5922660
-0.0387044 -0.0189734 3.33222 4873327
-0.0385646 -0.0189442 3.3324 4806502
-0.0379107 -0.0189241 3.3326 5067344
-0.0382811 -0.018982 3.33215 5330521
-0.0379388 -0.0189324 3.33245 7370098
-0.0385918 -0.0189753 3.33214 7112090
-0.0352667 -0.0176964 3.33969 4603710
-0.0385712 -0.0188727 3.33268 9937322
-0.0381852 -0.0189576 3.33222 3487546
-0.0385342 -0.0188903 3.33254 13293020
-0.0377964 -0.0188836 3.33266 6972507
-0.0379725 -0.0189183 3.33242 4997957
-0.0386057 -0.0189531 3.33219 12504541
-0.0384743 -0.0189317 3.33236 4013899
-0.0378684 -0.0188738 3.33264 7172464
-0.0387463 -0.0189226 3.33233 6847628
-0.0379189 -0.0188845 3.33254 7437438
-0.0379749 -0.0189486 3.33217 6445652
-0.0383994 -0.0189503 3.33214 5922666
-0.0381554 -0.0189385 3.33222 3552568
-0.0381508 -0.0189388 3.33222 9744315
-0.0381199 -0.0189343 3.33222 3420466
-0.038085 -0.0189319 3.33224 6779770
-0.0379494 -0.0188896 3.33248 4737863
-0.0387413 -0.0189239 3.33226 10929620
-0.0386378 -0.0189584 3.33207 7964312
-0.0386325 -0.0189295 3.33221 8424864
-0.0378811 -0.0188911 3.33242 7566450
-0.0386674 -0.0189421 3.33214 5330273
-0.0376823 -0.0188005 3.33293 6908004
-0.0382045 -0.0189341 3.33217 7898250
-0.0380476 -0.0189105 3.33229 9280929
-0.0378075 -0.0188831 3.33244 5329221
-0.0380403 -0.0189082 3.33228 6121575
-0.0379087 -0.0188651 3.33251 6315871
-0.0379225 -0.0188942 3.33235 10329514
-0.0386164 -0.0189364 3.33212 7043208
-0.0381652 -0.0189246 3.33218 5397603
-0.0378853 -0.0189177 3.33221 7370878
-0.0385866 -0.0190988 3.33127 8821416
-0.0384413 -0.0189351 3.33211 6381412
-0.0378411 -0.0188613 3.33249 9934509
-0.0377397 -0.0188425 3.33259 6578529
-0.0385253 -0.0189471 3.33204 12109523
-0.0382259 -0.0189201 3.33218 8226701
-0.0381833 -0.018924 3.33215 5000523
-0.0381589 -0.0189295 3.33214 6386044
-0.0378324 -0.0188771 3.3324 7765629
-0.0378404 -0.0188852 3.33235 8424328
-0.0380928 -0.0188607 3.33249 8426660
-0.0385741 -0.0189221 3.33214 11780560
-0.0379495 -0.0188746 3.33237 4933953
-0.0390584 -0.0188075 3.33271 11246213
-0.0382723 -0.0189249 3.33213 6253425
-0.0388169 -0.0188419 3.33252 5528932
-0.0385355 -0.0189308 3.33208 13096929
-0.0378221 -0.0188003 3.33271 9931904
-0.038678 -0.0188915 3.33225 5069160
-0.0382836 -0.0189213 3.33211 8690341
-0.0380449 -0.0189343 3.33204 11248025
-0.0385268 -0.0189287 3.33207 11255239
-0.0381809 -0.0189439 3.33199 3815741
-0.0385633 -0.0189332 3.33203 10202555
-0.0385445 -0.018923 3.33208 12176339
-0.0385106 -0.0189222 3.33208 10464954
-0.0381212 -0.0188887 3.33224 9542822
-0.038398 -0.0190728 3.33134 10790052
-0.038563 -0.0189114 3.33213 10005434
-0.0385088 -0.0190553 3.33145 14344679
-0.037946 -0.0188645 3.33231 8812676
-0.0382953 -0.0189047 3.33211 8951456
-0.0384205 -0.0189623 3.33184 8547946
-0.0384558 -0.0190461 3.33144 7239035
-0.0384385 -0.019056 3.33139 11451329
-0.0385131 -0.0191032 3.3312 8358039
-0.0380812 -0.0188992 3.33205 9209470
-0.0389066 -0.0187852 3.33255 4998743
-0.0381645 -0.0189883 3.33168 7841242
-0.0394877 -0.0184359 3.33403 7764860
-0.0385833 -0.0190909 3.33124 6450033
-0.0381245 -0.0189279 3.3319 7172723
-0.0384642 -0.0190419 3.33143 8617084
-0.0384066 -0.0190834 3.33126 8495585
-0.0397068 -0.017319 3.33871 4407638
-0.0386975 -0.018981 3.33169 3817031
-0.0384121 -0.0190826 3.33126 3879225
-0.0380944 -0.0189328 3.33187 5524301
-0.0385 -0.0191214 3.3311 8688812
-0.0388581 -0.0186947 3.33284 5001295
-0.0378009 -0.0174485 3.33793 8752271
-0.0384587 -0.0190396 3.33143 5262427
-0.0385103 -0.0190886 3.33123 4998999
-0.0383394 -0.0190284 3.33147 11640731
-0.0380597 -0.0188819 3.33205 7435662
-0.0384972 -0.0190884 3.33122 12823246
-0.0387755 -0.0187507 3.33253 10598602
-0.0384634 -0.0190378 3.33141 12167873
-0.0385009 -0.0190699 3.33129 6573902
-0.0384608 -0.0190348 3.33142 7168891
-0.0385412 -0.0190372 3.33141 13290950
-0.0385125 -0.0190932 3.33119 8685427
-0.0388202 -0.0187417 3.33257 4538964
-0.0384981 -0.0191004 3.33117 6383480
-0.0384509 -0.0190396 3.33139 10720903
-0.0381625 -0.0189387 3.33177 6451849
-0.0385433 -0.018889 3.33196 10986147
-0.0384737 -0.0190678 3.33127 8616573
-0.0396735 -0.0170307 3.33889 5657951
-0.0380586 -0.0174614 3.337 9474715
-0.0385298 -0.0190312 3.3314 10592667
-0.0383993 -0.0188844 3.33191 9606296
-0.0383072 -0.0189366 3.33175 6909817
-0.0386076 -0.0190799 3.33123 12364737
-0.0384505 -0.0189478 3.3317 13483700
-0.0379001 -0.0187114 3.33252 7501432
-0.0385148 -0.0190663 3.33127 3952241
-0.0382797 -0.0189338 3.33175 6183521
-0.0386092 -0.0190771 3.33123 9403040
-0.0385576 -0.0189654 3.33161 5393239
-0.0367255 -0.0179086 3.33502 4078912
-0.0379501 -0.0177228 3.33566 5461339
-0.038442 -0.0190044 3.33143 7299935
-0.038606 -0.0188655 3.33188 6775907
-0.0385713 -0.0190726 3.33122 7568013
-0.0385506 -0.0190387 3.33132 7104361
-0.0385471 -0.0191109 3.3311 6315360
-0.0385176 -0.0191048 3.33111 6777710
-0.0384768 -0.0195621 3.33234 2959399
-0.0384424 -0.0194383 3.33224 14015970
-0.0386091 -0.0194338 3.33229 8687008
-0.0384278 -0.019395 3.33223 13950436
-0.0381689 -0.019424 3.33245 3617327
-0.0384784 -0.019373 3.33223 13293277
-0.0385486 -0.0193585 3.33222 13293278
-0.0386229 -0.0193555 3.33226 8358809
-0.0383543 -0.0193521 3.33221 9807536
-0.038629 -0.0193399 3.33233 11518925
-0.0381487 -0.0193645 3.3324 9011572
-0.0385527 -0.0192978 3.33211 5792623
-0.0382653 -0.0193093 3.3322 9939893
-0.0386208 -0.0192816 3.33205 4607581
-0.0384637 -0.0193263 3.33236 11714504
-0.0381501 -0.0193117 3.33232 5990765
-0.0386927 -0.0192643 3.33235 6057853
-0.0382136 -0.0192692 3.33226 3092524
-0.0383051 -0.0192484 3.33217 11584718
-0.0384668 -0.0192329 3.3321 5658721
-0.0386901 -0.0192372 3.33231 11188163
-0.0385678 -0.0192308 3.33216 8818839
-0.0388135 -0.019294 3.33402 10986143
-0.0384822 -0.0192128 3.33211 8359063
-0.0381129 -0.019223 3.33278 9081750
-0.0381513 -0.0192022 3.33232 9745350
-0.0379327 -0.019201 3.33318 9548478
-0.0384319 -0.0191752 3.33254 11581884
-0.0381276 -0.0191684 3.33226 12222546
-0.0386331 -0.0191462 3.3322 11714503
-0.0384738 -0.0191468 3.33228 5725803
-0.0385153 -0.0191382 3.33214 10004910
-0.03845 -0.0191284 3.33186 6516344
-0.038332 -0.0191086 3.33215 7371653
-0.0386364 -0.0190695 3.33219 9215146
-0.0387117 -0.0190629 3.33225 10532289
-0.0381679 -0.0190536 3.33225 4278094
-0.0386115 -0.0190522 3.33213 8491166
-0.0386224 -0.0190059 3.33226 6647675
-0.0385369 -0.0190232 3.33213 11712706
-0.0379418 -0.0190223 3.33212 8748657
-0.0382032 -0.0190023 3.33218 7899538
-0.038109 -0.0189915 3.33227 5464940
-0.0377486 -0.0189341 3.33254 7500141
-0.0387386 -0.0189689 3.33227 3685704
-0.0386014 -0.018982 3.33217 6056831
-0.0379978 -0.0190053 3.33194 5985355
-0.0386787 -0.0189674 3.3322 7700366
-0.0381826 -0.0189744 3.33217 3158581
-0.0381515 -0.0189707 3.33221 5199194
-0.0385828 -0.018978 3.33212 9216435
-0.0379628 -0.0189314 3.33241 4601907
-0.0376254 -0.0188422 3.33299 6645345
-0.0392275 -0.0182099 3.33657 5989742
-0.0386004 -0.0188965 3.3325 11649489
-0.0382845 -0.0189534 3.33214 9674661
-0.0378463 -0.0189328 3.33225 6121065
-0.0382547 -0.0190058 3.33174 4406587
-0.0381787 -0.0189272 3.33195 12293498
-0.0385071 -0.0190944 3.33122 11453655
-0.0384949 -0.0190938 3.33123 11449270
-0.038111 -0.0189763 3.33175 10342133
-0.0384641 -0.0190484 3.3314 6910856
-0.0381115 -0.0188958 3.33199 4075056
-0.0388612 -0.018728 3.33263 14803173
-0.0385658 -0.0189739 3.33167 8289403
-0.038559 -0.0190644 3.33132 13161947
-0.0384256 -0.0190332 3.33139 4212048
-0.038541 -0.0190953 3.33117 6055286
-0.0386269 -0.0190514 3.33134 4736336
-0.0386245 -0.0190335 3.33139 5396063
-0.0385153 -0.0192287 3.33144 10201269
-0.038675 -0.0193149 3.33231 10202036
-0.0386117 -0.0193039 3.3322 4344148
-0.03706 -0.0198453 3.33671 7439242
-0.0386375 -0.0192658 3.33253 4935765
-0.0384064 -0.0192205 3.33218 5591116
-0.0381156 -0.0191185 3.33231 3683631
-0.0383896 -0.0190588 3.33214 8752535
-0.0381423 -0.0189483 3.33228 3288882
-0.0388391 -0.0188045 3.33296 7638428
-0.0385136 -0.0189526 3.33206 13161435
-0.0386038 -0.0189451 3.33193 11385022
-0.0383157 -0.0197071 3.33263 7356190
-0.0385901 -0.0196568 3.33253 5977128
-0.0383273 -0.0196351 3.3324 2564386
-0.0385554 -0.0194305 3.33182 7369069
-0.0384471 -0.0194648 3.33192 5516057
-0.0385774 -0.0196223 3.33251 8933161
-0.0384809 -0.0195676 3.33235 2893098
-0.038367 -0.0196735 3.33277 10792377
-0.0384087 -0.0195481 3.33231 10271177
-0.0384275 -0.0195393 3.33231 13030104
-0.0383982 -0.0195246 3.33229 12636637
-0.0383797 -0.0194589 3.33211 8682098
-0.0384678 -0.0194393 3.33204 11253701
-0.0383502 -0.0195811 3.33259 11318464
-0.0383495 -0.0194996 3.33228 11583688
-0.0385797 -0.0194044 3.332 12764881
-0.038328 -0.0194711 3.33226 9544369
-0.0382697 -0.0195054 3.33237 9738403
-0.03835 -0.019477 3.33228 12437456
-0.0385095 -0.0194523 3.33224 11253185
-0.0381484 -0.0198314 3.33396 12569041
-0.0384185 -0.0194436 3.33225 10133939
-0.0382517 -0.0194693 3.33234 10263966
-0.0383787 -0.0194214 3.33215 10266551
-0.0385266 -0.0194316 3.33224 14805225
-0.0383667 -0.0194428 3.33229 10527923
-0.0383485 -0.0194419 3.3323 10858429
-0.0384414 -0.0194187 3.33221 9607077
-0.0382454 -0.0194498 3.33234 8686733
-0.0383538 -0.0193984 3.33221 7567757
-0.0383297 -0.019388 3.33222 8094611
-0.038403 -0.0193783 3.33221 7371920
-0.0383647 -0.0193794 3.3322 10396076
-0.0385848 -0.019378 3.33232 11318974
-0.0384372 -0.0193623 3.33223 10398134
-0.0386007 -0.0193337 3.33209 11582402
-0.0381821 -0.019374 3.33235 10325896
-0.0383634 -0.0193496 3.33216 7700104
-0.0381357 -0.0194084 3.33251 8879473
-0.0384308 -0.0193281 3.33205 10989244
-0.0385045 -0.0193414 3.33218 11120828
-0.0384323 -0.0193416 3.33217 12503246
-0.0383703 -0.01933 3.3321 12965846
-0.0383245 -0.0193315 3.33215 10134958
-0.0386085 -0.0193001 3.33201 9214112
-0.038336 -0.0193286 3.33215 9214372
-0.0385642 -0.0193229 3.33218 12305867
-0.0385977 -0.0193221 3.33221 5461857
-0.0386178 -0.0193239 3.33228 8555672
-0.0381812 -0.0193318 3.33232 5662828
-0.0386258 -0.0193214 3.3323 10199468
-0.0386013 -0.0192709 3.3319 7898772
-0.0384118 -0.0193039 3.33213 6779006
-0.0381153 -0.0193575 3.33251 8557977
-0.0383229 -0.0193255 3.33232 6582910
-0.0385833 -0.0193109 3.33228 6846082
-0.0385502 -0.0193692 3.33276 5068904
-0.0386004 -0.0192108 3.33143 4213857
-0.0383249 -0.0192784 3.33198 9874097
-0.038557 -0.0192868 3.33217 5331820
-0.0385896 -0.0192204 3.33155 3886943
-0.0385791 -0.0192833 3.33223 3027510
-0.038125 -0.0193138 3.3324 4278604
-0.0386166 -0.0192765 3.33225 10661811
-0.0382482 -0.0192948 3.33233 6713207
-0.0383448 -0.0192684 3.33214 4739161
-0.038382 -0.0192595 3.33213 5462625
-0.0385991 -0.0192545 3.33217 5594215
-0.0385454 -0.0192541 3.33219 6646380
-0.0385506 -0.0192012 3.33148 7765381
-0.0381288 -0.0192796 3.33242 5664374
-0.0385816 -0.0192521 3.33221 6382180
-0.0385878 -0.0192364 3.3321 7831428
-0.0386997 -0.0192582 3.33244 8492456
-0.0385986 -0.0192393 3.33221 5000276
-0.0384833 -0.0192363 3.33213 10530749
-0.0380571 -0.0192693 3.3325 8488325
-0.0382934 -0.0192374 3.33217 8359831
-0.0381711 -0.019225 3.33234 8820892
-0.0385475 -0.0192014 3.33208 13359074
-0.0384605 -0.0192021 3.33209 11253955
-0.0383929 -0.0191858 3.33247 9280938
-0.0382559 -0.0191835 3.33219 5790810
-0.0353674 -0.0192976 3.34231 7898766
-0.0385087 -0.0191693 3.33181 9673896
-0.0382531 -0.0191811 3.33209 9151407
-0.0387059 -0.0191637 3.33245 9083819
-0.0385746 -0.0191667 3.33203 12635864
-0.0382853 -0.0191773 3.33224 7898516
-0.0383382 -0.0191629 3.33207 6845316
-0.0376584 -0.0191506 3.33421 7700357
-0.0384499 -0.019154 3.33215 6253174
-0.0386163 -0.0191515 3.33218 9016480
-0.0386079 -0.0191461 3.33221 12766938
-0.0385977 -0.0191474 3.33197 9805480
-0.0383764 -0.0191515 3.33213 10133415
-0.0383753 -0.0191493 3.33211 7370113
-0.0386327 -0.0191415 3.33218 12174027
-0.0385067 -0.0191395 3.3321 8621979
-0.0380317 -0.0191407 3.33251 7037278
-0.0385195 -0.0191379 3.33212 8357518
-0.0387272 -0.0191166 3.33239 7504782
-0.0385991 -0.0191193 3.33209 7767444
-0.038008 -0.0191085 3.33251 6511711
-0.0386041 -0.0191123 3.33189 10003634
-0.0381329 -0.0190467 3.33483 2173755
-0.0387444 -0.019092 3.33251 9809333
-0.0385426 -0.0191326 3.33158 4543329
-0.0380706 -0.0190968 3.33236 9013898
-0.0384234 -0.019112 3.332 7240329
-0.0384121 -0.0190971 3.33238 2567740
-0.0386032 -0.0190971 3.33212 12832732
-0.0380085 -0.0190788 3.33252 4274230
-0.0384006 -0.0191006 3.33208 9607593
-0.0387376 -0.0190681 3.33249 11451587
-0.0386295 -0.0190944 3.33201 9214372
-0.0386849 -0.0190706 3.33232 10069676
-0.0386098 -0.019083 3.33212 8029075
-0.0379734 -0.0190607 3.33257 4273976
-0.0386585 -0.0190551 3.33229 10003892
-0.0384124 -0.0190798 3.33199 7436675
-0.037876 -0.0190201 3.3328 9477784
-0.0381667 -0.0190525 3.33224 3289656
-0.0386463 -0.0190422 3.33215 11056573
-0.0387377 -0.0190027 3.33255 9019056
-0.0386353 -0.0190755 3.33181 9476778
-0.0382191 -0.019071 3.33179 6773590
-0.0383065 -0.0190774 3.33169 7497305
-0.0382172 -0.0190643 3.3318 9345429
-0.0385883 -0.0190259 3.33211 4014159
-0.0383319 -0.0190276 3.33211 5528163
-0.0367992 -0.0188187 3.33414 8943723
-0.0387125 -0.0189956 3.33231 4082784
-0.0385955 -0.0191182 3.33127 6250859
-0.0367513 -0.0187729 3.33412 6376519
-0.0374042 -0.0188193 3.33363 5133650
-0.0380963 -0.018976 3.33234 3091249
-0.0386339 -0.0191287 3.33115 8884637
-0.0365198 -0.0186377 3.33486 8877923
-0.0381555 -0.018974 3.33231 6185318
-0.038709 -0.0189727 3.33225 4608093
-0.0380846 -0.0189493 3.33241 4673622
-0.0368854 -0.0187025 3.33419 5917769
-0.0386235 -0.0189882 3.33209 10925249
-0.0382083 -0.0190306 3.33181 7369585
-0.0386775 -0.0189713 3.33217 9607849
-0.0372409 -0.0187263 3.33381 8093306
-0.0380677 -0.0190089 3.33198 10259571
-0.0385856 -0.018979 3.33208 11649744
-0.0386302 -0.018961 3.33211 7503761
-0.0385555 -0.018966 3.33208 13557222
-0.0388967 -0.018733 3.33346 6975857
-0.0387185 -0.018926 3.33232 6256792
-0.0385776 -0.0189698 3.33206 12438229
-0.0388947 -0.0186876 3.33366 4936539
-0.0387266 -0.018907 3.33237 10403018
-0.0386098 -0.018954 3.33211 12109526
-0.0388998 -0.0187149 3.33337 7307657
-0.0386341 -0.0189117 3.33228 10398393
-0.0384953 -0.0189076 3.33233 13425124
-0.0384058 -0.0189544 3.33205 3750985
-0.0389775 -0.0186555 3.3336 10330263
-0.0386349 -0.0191233 3.33113 4868940
-0.0383173 -0.0190278 3.33161 5986655
-0.0386858 -0.0189074 3.33224 9020346
-0.0389313 -0.0186267 3.33369 3157557
-0.0380133 -0.0188389 3.33254 8361124
-0.0387305 -0.0189241 3.3321 6452870
-0.0386457 -0.0191242 3.33112 6841182
-0.0390607 -0.0184803 3.3342 7636619
-0.0377934 -0.0188504 3.33233 7239312
-0.0386255 -0.0189406 3.33197 8557476
-0.0385446 -0.0190746 3.33134 4867146
-0.0381001 -0.01885 3.33237 8947349
-0.0385001 -0.0190757 3.33133 6581873
-0.038279 -0.0189396 3.332 8425377
-0.0388801 -0.0186151 3.33341 4541013
-0.0386343 -0.0190851 3.33127 4539215
-0.0386168 -0.0189479 3.3319 9150126
-0.0385872 -0.0189199 3.33203 10992842
-0.0385003 -0.019071 3.33135 12102011
-0.0386314 -0.0189015 3.33211 5332594
-0.0381497 -0.0188582 3.33227 13620187
-0.0386815 -0.0188762 3.3322 6849432
-0.0386102 -0.0189182 3.33202 8622754
-0.038538 -0.0190405 3.3315 7436159
-0.0385401 -0.0190533 3.33139 10660278
-0.0382852 -0.0189339 3.332 7497114
-0.0373284 -0.0182251 3.33508 10388094
-0.0388787 -0.0186336 3.33332 3291713
-0.0384665 -0.0188911 3.33216 13355983
-0.0388422 -0.0188073 3.33255 3357507
-0.0386279 -0.0190811 3.33127 4474969
-0.0386323 -0.019098 3.33121 5925240
-0.0385578 -0.0190621 3.33135 7104107
-0.0386172 -0.0191038 3.3312 10658469
-0.0386539 -0.0191189 3.33113 5920605
-0.0387626 -0.0189562 3.3318 5991808
-0.038666 -0.0188664 3.33214 10992329
-0.0385605 -0.0190615 3.33135 9211542
-0.0384501 -0.0188863 3.33215 3421760
-0.0386264 -0.0191096 3.33116 10989494
-0.0386268 -0.0191123 3.33114 5595242
-0.0385514 -0.0190577 3.33135 6253710
-0.0387121 -0.019005 3.33161 5660268
-0.0386277 -0.0191118 3.33115 4804690
-0.0386196 -0.019072 3.3313 11383216
-0.0385949 -0.0189515 3.3318 7965341
-0.0386508 -0.0191178 3.33112 3750982
-0.0386372 -0.0190806 3.33125 8691891
-0.0386503 -0.019117 3.33113 5260351
-0.0386767 -0.0190391 3.33141 7961480
-0.0386985 -0.0189964 3.33158 10398135
-0.0386751 -0.0190186 3.33149 7506071
-0.0405594 -0.0151952 3.34683 6648447
-0.038623 -0.0190893 3.33123 4935782
-0.0384998 -0.0185667 3.3333 12308692
-0.0385444 -0.0190699 3.33129 10453107
-0.0384943 -0.019045 3.3314 9994087
-0.0376558 -0.0186638 3.33291 8490146
-0.038552 -0.0190692 3.3313 4668484
-0.0387667 -0.0188225 3.33229 3951715
-0.0386379 -0.0190615 3.33133 5464173
-0.0384468 -0.0188647 3.33216 12105397
-0.0386497 -0.0191129 3.33114 12763079
-0.0385489 -0.0190697 3.33128 11572611
-0.038447 -0.0177929 3.33627 6777981
-0.0382769 -0.0188484 3.33217 14671848
-0.0386553 -0.0191055 3.33116 6119795
-0.038622 -0.0187946 3.33241 5330796
-0.0386713 -0.0190933 3.3312 12896475
-0.0386413 -0.0190687 3.33128 13484736
-0.038639 -0.0190582 3.33133 6254719
-0.0384381 -0.0190045 3.33152 13812926
-0.0385249 -0.0190361 3.3314 8091539
-0.0363235 -0.0179025 3.33557 8158600
-0.0386445 -0.0191172 3.33111 7238015
-0.038645 -0.019112 3.33113 10529203
-0.03866 -0.0190734 3.33127 3547941
-0.0386382 -0.0191169 3.33111 5197640
-0.0386864 -0.0190004 3.33156 4343135
-0.0386475 -0.019116 3.33111 4997196
-0.0386424 -0.0191112 3.33114 7766167
-0.0386414 -0.0190871 3.33121 3945791
-0.0385945 -0.0190004 3.33156 8817290
-0.0384238 -0.0189068 3.33191 6707792
-0.0386451 -0.0191136 3.33111 4339792
-0.038654 -0.0190732 3.33126 5924227
-0.0386371 -0.0190657 3.33128 2697521
-0.0386208 -0.0191043 3.33115 7765119
-0.0395163 -0.0160078 3.34248 5726826
-0.0386427 -0.0191087 3.33114 11516618
-0.0393825 -0.0175193 3.3368 3486795
-0.0386598 -0.0190907 3.33119 3362900
-0.0387954 -0.0186938 3.33254 6190206
-0.0388345 -0.0177074 3.33605 5526876
-0.0386451 -0.0191119 3.33111 7898803
-0.0386139 -0.0188568 3.33203 10660016
-0.0384484 -0.0189867 3.33152 12298657
-0.0387207 -0.0187955 3.33219 7899803
-0.0386005 -0.0190697 3.33125 12756941
-0.0384182 -0.0189835 3.33154 9016987
-0.0386548 -0.0190924 3.33118 2630958
-0.0384154 -0.0189754 3.33156 12103851
-0.0386617 -0.0190562 3.3313 6581636
